# .PCD v0.7 - Point Cloud Data file format
VERSION 0.7
FIELDS x y z rgb
SIZE 4 4 4 4
TYPE F F F U
COUNT 1 1 1 1
WIDTH 686
HEIGHT 1
VIEWPOINT 0 0 0 1 0 0 0
POINTS 686
DATA ascii
0.32187381 -0.04479963 -0.66670138 255
0.3210372 -0.09079212 -0.69967878 255
0.32030919 -0.1648993 -0.74902731 255
0.3182798 -0.088926151 -0.70029539 255
0.32233021 -0.1846233 -0.76804447 255
0.3223137 -0.1788992 -0.75780129 255
0.31902829 -0.059971619 -0.68168348 255
0.318064 -0.1513043 -0.73928243 255
0.31927809 -0.1192839 -0.72056627 255
0.3161411 -0.09059988 -0.69872433 255
0.3194685 -0.079726413 -0.69388139 255
0.31872779 -0.076230973 -0.68892348 255
0.31764781 -0.069050796 -0.68711579 255
0.31229749 -0.060141832 -0.67909002 255
0.3169212 -0.057746992 -0.678056 255
0.31800291 -0.049105871 -0.67166591 255
0.31641531 -0.046509799 -0.66997141 255
0.31534261 -0.039601091 -0.66816193 255
0.3150079 -0.1919876 -0.76968187 255
0.31897941 -0.1801219 -0.75854689 255
0.31858879 -0.1391407 -0.73506618 255
0.3180671 -0.1320166 -0.7290346 255
0.31795111 -0.1291496 -0.72701102 255
0.3193959 -0.1163411 -0.71951509 255
0.31980941 -0.1089426 -0.71737331 255
0.31891429 -0.1010129 -0.70937592 255
0.3190932 -0.099492371 -0.70933592 255
0.319747 -0.089107417 -0.69996738 255
0.31820971 -0.02972712 -0.66239733 255
0.31066141 -0.01778404 -0.66203588 255
0.31907171 -0.190614 -0.77184743 255
0.3192642 -0.1889782 -0.77180427 255
0.3169823 -0.1889239 -0.76924032 255
0.3174071 -0.1799276 -0.75889862 255
0.3182677 -0.16879331 -0.75665653 255
0.31875351 -0.16470709 -0.74937522 255
0.31729129 -0.1598991 -0.74765259 255
0.31517479 -0.1493492 -0.73992842 255
0.30884561 -0.04997756 -0.67166418 255
0.30866861 -0.1699304 -0.75163031 255
0.3095572 -0.13886 -0.73093748 255
0.30853471 -0.099538296 -0.70452422 255
0.30165419 -0.071396589 -0.67839569 255
0.30634379 -0.1109676 -0.70808798 255
0.30846819 -0.1093362 -0.70966238 255
0.3079955 -0.093041241 -0.69849652 255
0.30742261 -0.0812902 -0.6894024 255
0.3090398 -0.079989716 -0.68904078 255
0.30872729 -0.069607928 -0.68193758 255
0.3085843 -0.06709826 -0.67992032 255
0.30888039 -0.058993831 -0.67677993 255
0.30313689 -0.05471554 -0.66884202 255
0.3086915 -0.047562439 -0.66964918 255
0.30039191 -0.034214448 -0.65818429 255
0.30880439 -0.037290569 -0.66450047 255
0.3091003 -0.179076 -0.75870651 255
0.30139321 -0.17103679 -0.74915832 255
0.30840811 -0.1684825 -0.74963909 255
0.30817881 -0.15944719 -0.74354208 255
0.30783209 -0.1550708 -0.73952079 255
0.30964789 -0.1491694 -0.73706561 255
0.3054308 -0.14047819 -0.72776163 255
0.30946201 -0.1359763 -0.72890937 255
0.30944791 -0.12870941 -0.72481382 255
0.309192 -0.1216516 -0.71974748 255
0.3090865 -0.1188549 -0.71772182 255
0.29981649 -0.099618539 -0.70032543 255
0.30998331 -0.08873412 -0.69805193 255
0.2988157 -0.039209168 -0.66058588 255
0.30931559 -0.02922119 -0.66233683 255
0.3097941 -0.19148751 -0.76879841 255
0.30954361 -0.1899545 -0.76680487 255
0.3089112 -0.1806834 -0.75874883 255
0.29836431 -0.189165 -0.76110733 255
0.30344731 -0.01045181 -0.66569853 255
0.29802099 -0.1799362 -0.75401127 255
0.30642441 -0.002560958 -0.66810679 255
0.3070842 -0.00052037841 -0.67000872 255
0.2984435 -0.19543269 -0.7651884 255
0.29443729 -0.1920816 -0.75993598 255
0.29637969 -0.18906771 -0.7595017 255
0.29193369 -0.1813028 -0.74922419 255
0.2996746 -0.021696139 -0.66141868 255
0.29966819 -0.01497532 -0.66449422 255
0.29987389 -0.001093328 -0.67162108 255
0.2874226 -0.1977226 -0.76150471 255
0.2866593 -0.1599362 -0.73400849 255
0.28944609 -0.1189191 -0.70674318 255
0.2821216 -0.1016238 -0.68993658 255
0.28907761 -0.068560816 -0.67403531 255
0.29923299 -0.003132418 -0.66971493 255
0.28847179 -0.1840867 -0.74999839 255
0.28976011 -0.17977031 -0.74561173 255
0.2877472 -0.17368791 -0.73991352 255
0.2898255 -0.1691848 -0.73944873 255
0.28188911 -0.1647002 -0.7289272 255
0.28639269 -0.1556426 -0.72996938 255
0.28800851 -0.1499439 -0.72653389 255
0.2805869 -0.1484714 -0.71999609 255
0.28945899 -0.1371967 -0.71801221 255
0.28216219 -0.1302212 -0.70837212 255
0.32187891 -0.1690378 -0.75789851 255
0.21992519 -0.15994351 -0.72946233 255
0.22580659 -0.078938916 -0.65846771 255
0.22042251 -0.069118917 -0.66274577 255
0.1869521 -0.037873689 -0.72249001 255
0.32519019 -0.1877396 -0.7745778 255
0.21991751 -0.17846709 -0.74893332 255
0.2201383 -0.098549381 -0.67920452 255
0.2199063 -0.1698187 -0.73971349 255
0.2242447 -0.089562789 -0.66803932 255
0.3210386 -0.1251224 -0.72427142 255
0.2198738 -0.1199084 -0.6997577 255
0.220369 -0.099455282 -0.68222702 255
0.216493 -0.1489809 -0.72818053 255
0.2228862 -0.068720579 -0.6591208 255
0.21955919 -0.13978229 -0.71827263 255
0.221458 -0.05866757 -0.64816839 255
0.1890789 -0.02443205 -0.70561928 255
0.1898113 -0.079443201 -0.75156683 255
0.22046401 -0.1091593 -0.69347751 255
0.2209076 -0.08914493 -0.67595851 255
0.21653309 -0.1195705 -0.70972699 255
0.2297911 -0.038124651 -0.63913208 255
0.32078221 -0.1194697 -0.72022998 255
0.216673 -0.1093034 -0.6994487 255
0.2863906 -0.01871522 -0.65926582 255
0.3213079 -0.1091278 -0.71703821 255
0.2168196 -0.098071277 -0.68814421 255
0.2176221 -0.03024249 -0.64492738 255
0.2206302 -0.0598366 -0.65450168 255
0.2895332 -0.027714031 -0.65856302 255
0.1876591 -0.029953441 -0.71823299 255
0.1848336 -0.01266727 -0.70964259 255
0.2207201 -0.04193088 -0.64833337 255
0.32092461 -0.07990633 -0.69355577 255
0.2155899 -0.068536587 -0.66997463 255
0.2183425 -0.05880253 -0.65808761 255
0.2288817 -0.0060913712 -0.65778011 255
0.2001158 -0.16927791 -0.7984482 255
0.247586 -0.199439 -0.73864728 255
0.20974021 -0.1832435 -0.77887601 255
0.21318281 -0.1089942 -0.70842671 255
0.28933761 -0.01206854 -0.66270548 255
0.22028901 -0.079649672 -0.67302263 255
0.2175004 -0.022417661 -0.64802891 255
0.21362241 -0.088916138 -0.68885922 255
0.18549711 -0.028287491 -0.72998828 255
0.2208595 -0.034689609 -0.65445048 255
0.22223461 -0.039624959 -0.64697021 255
0.1851785 -0.0097360909 -0.70956552 255
0.2062391 -0.1804827 -0.78990579 255
0.2289319 -0.02013566 -0.64854652 255
0.2089361 -0.1591903 -0.75753719 255
0.2085526 -0.1798429 -0.77914149 255
0.2896843 -0.003588706 -0.66672683 255
0.2049899 -0.16964111 -0.77993822 255
0.28907159 4.9933791e-05 -0.66891319 255
0.2089197 -0.169269 -0.7698372 255
0.2122497 -0.068910509 -0.6799438 255
0.2070576 -0.1424652 -0.74975967 255
0.2140435 -0.05719018 -0.66929573 255
0.2071982 -0.1492348 -0.75997531 255
0.20588259 -0.1378576 -0.74797302 255
0.2139163 -0.049829349 -0.65907729 255
0.217059 -0.03476936 -0.65837449 255
0.20954069 -0.1189598 -0.72973508 255
0.21961319 -0.01682608 -0.64858103 255
0.2106811 -0.048753381 -0.66799831 255
0.20750649 -0.129889 -0.73838758 255
0.20980939 -0.044386551 -0.66819322 255
0.21145611 -0.030392719 -0.66782498 255
0.20316011 -0.1154002 -0.73935962 255
0.20622849 -0.1789794 -0.78785902 255
0.2292438 -0.018473281 -0.6495015 255
0.2051912 -0.1593443 -0.76862162 255
0.20773681 -0.038451541 -0.66865671 255
0.2011347 -0.1743824 -0.79822028 255
0.2292977 -0.01132032 -0.6546129 255
0.2423355 -0.2050602 -0.73982137 255
0.20269039 -0.1584534 -0.77532911 255
0.2037525 -0.12846421 -0.74640012 255
0.20596419 -0.1096371 -0.72848552 255
0.206691 -0.088932753 -0.70885372 255
0.2754496 7.7813856e-05 -0.66683578 255
0.24897639 -0.1295872 -0.69222498 255
0.2092607 -0.01277269 -0.65089601 255
0.1999234 -0.1709137 -0.79849118 255
0.2027892 -0.098527767 -0.72919548 255
0.21933299 -0.01028435 -0.65171778 255
0.23770531 -0.20302249 -0.73880762 255
0.2010525 -0.1684861 -0.78901643 255
0.2006156 -0.1585784 -0.78911412 255
0.2461278 -0.1873676 -0.72975111 255
0.2007079 -0.1499085 -0.77782172 255
0.2446923 -0.17413171 -0.71982509 255
0.2032194 -0.1494657 -0.76906252 255
0.20503961 -0.13966911 -0.75840849 255
0.2122976 2.071261e-06 -0.65226632 255
0.20017409 -0.079314068 -0.72465682 255
0.29917711 -0.15900899 -0.739407 255
0.1984631 -0.1557972 -0.79881781 255
0.2300877 -0.1866554 -0.73743677 255
0.2489727 -0.1012461 -0.66968262 255
0.29859391 -0.1271918 -0.71801871 255
0.1951672 -0.1297697 -0.77906072 255
0.23307399 -0.1599829 -0.71217632 255
0.2425279 -0.070933983 -0.64960498 255
0.2008079 -0.08928594 -0.72861397 255
0.2969093 -0.1650907 -0.73991412 255
0.1989045 -0.16580909 -0.79871911 255
0.21904691 -0.0036958749 -0.65485579 255
0.2379231 -0.19997691 -0.73773408 255
0.2195939 -0.051501662 -0.64858532 255
0.1897261 -0.1199348 -0.77617872 255
0.19353309 -0.038502861 -0.70974672 255
0.221679 -0.1489135 -0.71984792 255
0.2398348 -0.069443569 -0.6491825 255
0.1974594 -0.079697728 -0.72936273 255
0.2284943 -0.1894417 -0.73984247 255
0.2398468 -0.1048097 -0.66967392 255
0.199745 -0.1120198 -0.74934548 255
0.29948741 -0.109483 -0.70449781 255
0.19379701 -0.1084686 -0.7691201 255
0.2419202 -0.052556992 -0.63949388 255
0.2004541 -0.069573827 -0.71332258 255
0.2982915 -0.14902391 -0.72935808 255
0.1968289 -0.1498991 -0.78996092 255
0.2311043 -0.1797889 -0.72696239 255
0.24294139 -0.09128052 -0.65975952 255
0.32088441 -0.088143073 -0.69766361 255
0.2166304 -0.071516171 -0.66974193 255
0.1873274 -0.1341884 -0.79003608 255
0.298585 -0.057073221 -0.66985989 255
0.19387311 -0.058302209 -0.7281152 255
0.22008701 -0.16828319 -0.73967308 255
0.29111379 -0.090396397 -0.68997508 255
0.1968579 -0.09755598 -0.74999112 255
0.20832381 -0.01708306 -0.67877251 255
0.2229615 -0.20197999 -0.75849962 255
0.23933619 -0.12945101 -0.68720782 255
0.20055179 -0.059374869 -0.69895488 255
0.1998892 -0.1378134 -0.76980722 255
0.2371387 -0.16069829 -0.70921791 255
0.2896997 -0.1384944 -0.7200076 255
0.1899094 -0.1394228 -0.78945869 255
0.1973661 -0.059731629 -0.71606243 255
0.2247747 -0.1697747 -0.72837788 255
0.2386923 -0.089758068 -0.65866029 255
0.19915681 -0.096658386 -0.73820537 255
0.22938129 -0.2047444 -0.74886638 255
0.1998549 -0.1310952 -0.75956792 255
0.21842051 -0.04996952 -0.6488477 255
0.1893398 -0.1076049 -0.77216631 255
0.19312081 -0.028560011 -0.70778948 255
0.22055531 -0.1390454 -0.71292633 255
0.2386312 -0.05878967 -0.64125413 255
0.29038051 -0.061191011 -0.66862053 255
0.19575921 -0.068783984 -0.72974288 255
0.18969209 -0.1424482 -0.79155678 255
0.2263148 -0.17995781 -0.73828048 255
0.2302393 -0.099896103 -0.66874832 255
0.19878259 -0.1071986 -0.74956071 255
0.2391361 -0.1335395 -0.68930203 255
0.2976121 -0.08650358 -0.6895467 255
0.19306441 -0.089616567 -0.74879009 255
0.2219827 -0.1970761 -0.75871849 255
0.23243061 -0.1194729 -0.68157917 255
0.2003969 -0.047818631 -0.69796479 255
0.29067031 -0.1262273 -0.70954353 255
0.1977312 -0.1281786 -0.76824027 255
0.23876411 -0.15939111 -0.70885438 255
0.216758 -0.079350963 -0.67996043 255
0.29845369 -0.08985883 -0.69550669 255
0.19022819 -0.088899568 -0.75147361 255
0.2209326 -0.1967272 -0.76305199 255
0.1958822 -0.043265279 -0.70922142 255
0.28736979 -0.1288815 -0.71028161 255
0.18897749 -0.1262964 -0.77634609 255
0.2248342 -0.1599533 -0.71914232 255
0.2381673 -0.072030917 -0.64955539 255
0.1888887 -0.088367373 -0.75382268 255
0.2200882 -0.117131 -0.69868499 255
0.2098303 -0.0094297826 -0.65281802 255
0.19961409 -0.087418407 -0.72990549 255
0.2296343 -0.192706 -0.7395876 255
0.29721981 -0.072325923 -0.67938739 255
0.1936924 -0.078973308 -0.73942739 255
0.223184 -0.1898966 -0.7482028 255
0.2399777 -0.1096687 -0.67476797 255
0.2006343 -0.039922278 -0.68868947 255
0.19961689 -0.1199593 -0.75962108 255
0.29953739 -0.098456167 -0.69833839 255
0.19249959 -0.099133067 -0.75711387 255
0.2218574 -0.2001473 -0.76079601 255
0.20090429 -0.05972578 -0.70399958 255
0.29119089 -0.1386786 -0.71967423 255
0.197722 -0.134949 -0.77848941 255
0.23284011 -0.1698847 -0.71940142 255
0.2275883 -0.1092274 -0.67958802 255
0.2197348 -0.1800196 -0.74897408 255
0.19974139 -0.035449211 -0.68888909 255
0.2983385 -0.1188554 -0.71192759 255
0.19204199 -0.1124549 -0.77361143 255
0.24554311 -0.068509333 -0.64893073 255
0.224548 -0.1293842 -0.69871253 255
0.1973844 -0.052118469 -0.70376199 255
0.2288717 -0.163495 -0.71823943 255
0.2111422 -0.1865419 -0.78061187 255
0.23996881 -0.021971939 -0.64915252 255
0.2350778 -0.039866511 -0.63897461 255
0.1841877 -0.095152572 -0.76717019 255
0.1914124 -0.01433472 -0.699974 255
0.22061419 -0.12980139 -0.70369083 255
0.23974641 -0.048150029 -0.63998002 255
0.29911661 -0.1297539 -0.7220006 255
0.19088329 -0.12996779 -0.78719169 255
0.2498766 -0.07937707 -0.65820873 255
0.1893792 -0.1050394 -0.76805878 255
0.1967831 -0.029713649 -0.69877303 255
0.22292989 -0.139865 -0.7082966 255
0.23416729 -0.059012491 -0.63917822 255
0.1981629 -0.067983523 -0.71998298 255
0.227109 -0.17759331 -0.72990531 255
0.19050901 -0.0098084658 -0.700176 255
0.2395138 -0.031769011 -0.64413083 255
0.32087249 -0.070479304 -0.68844402 255
0.21947581 -0.062666282 -0.65988338 255
0.18931089 -0.1297735 -0.7875433 255
0.29678911 -0.040963951 -0.65898991 255
0.19751211 -0.04722707 -0.71807909 255
0.2201037 -0.15842681 -0.72942239 255
0.23919021 -0.079635412 -0.65342557 255
0.1987455 -0.087329447 -0.73829752 255
0.2268931 -0.1997 -0.74942279 255
0.2395936 -0.1189037 -0.67997742 255
0.20241991 -0.048868582 -0.68829018 255
0.2141688 -0.1521941 -0.73894727 255
0.28915009 -0.049557049 -0.66274738 255
0.1874219 -0.049878869 -0.72955781 255
0.2208795 -0.079827979 -0.66571772 255
0.1786622 -0.1024415 -0.7684058 255
0.32072619 -0.1473572 -0.73458821 255
0.2193896 -0.1307117 -0.70703882 255
0.2288819 -0.05724391 -0.63933551 255
0.29981619 -0.049803909 -0.66446108 255
0.190887 -0.045731291 -0.72878301 255
0.2960985 -0.1025725 -0.69910741 255
0.19766439 -0.1089282 -0.75800842 255
0.2320753 -0.1392125 -0.69702917 255
0.20192979 -0.067420572 -0.70991838 255
0.1995246 -0.14652 -0.77808642 255
0.23524369 -0.17475741 -0.71886402 255
0.17889009 -0.099613041 -0.76630551 255
0.2176282 -0.1227064 -0.70948207 255
0.22751381 -0.046085428 -0.6396414 255
0.29922739 -0.079885863 -0.68611139 255
0.1928298 -0.078642286 -0.7488426 255
0.22088569 -0.1892264 -0.75486499 255
0.32071689 -0.118066 -0.71921968 255
0.2179728 -0.1022272 -0.68993568 255
0.2001209 -0.033498671 -0.69085377 255
0.29954809 -0.1178022 -0.70960772 255
0.1940373 -0.1197122 -0.76906639 255
0.1853202 -0.029790889 -0.73002779 255
0.1901677 -0.01270935 -0.70025241 255
0.23938531 -0.040925119 -0.64108551 255
0.2295047 -0.13862421 -0.69965333 255
0.29918319 -0.05905759 -0.67382479 255
0.1938816 -0.059377428 -0.7301628 255
0.32206079 -0.099859029 -0.70867229 255
0.219754 -0.089833863 -0.67929047 255
0.2212169 -0.016636509 -0.67793858 255
0.250406 -0.1271106 -0.68985587 255
0.1967123 -0.030904841 -0.69981343 255
0.2293807 -0.14942379 -0.70890331 255
0.191319 -0.079629503 -0.7512297 255
0.23268449 -0.060204878 -0.6395098 255
0.1899171 -0.076917447 -0.74846911 255
0.2183065 -0.18865021 -0.75954062 255
0.22151799 -0.1085207 -0.68914288 255
0.1903062 -0.069276713 -0.74018461 255
0.23054481 -0.14980771 -0.70659381 255
0.1924016 -0.154236 -0.82681519 255
0.27945101 -0.001861289 -0.66594112 255
0.29812431 -0.029617529 -0.65869129 255
0.19044951 -0.028638231 -0.71248561 255
0.27894029 -0.01061928 -0.66093183 255
0.296956 -0.039545629 -0.65895259 255
0.19077189 -0.03987154 -0.71548778 255
0.2204683 -0.1485277 -0.72216803 255
0.29898351 -0.069589272 -0.67899299 255
0.19309589 -0.068923444 -0.73546177 255
0.2209384 -0.1789044 -0.7446062 255
0.2194189 -0.092681743 -0.6793654 255
0.2398884 -0.091319829 -0.65839279 255
0.1924154 -0.1092817 -0.77352792 255
0.24883699 -0.059894621 -0.64512008 255
0.2986902 -0.1386309 -0.72517008 255
0.19148549 -0.1396175 -0.78910619 255
0.2000946 -0.058226559 -0.71032882 255
0.23008271 -0.1680187 -0.72001803 255
0.248028 -0.084602103 -0.65964669 255
0.20028549 -0.09989059 -0.73795313 255
0.29792309 -0.17382739 -0.74993432 255
0.1972629 -0.1701066 -0.80523431 255
0.2335715 -0.2084201 -0.74792951 255
0.2377146 -0.1204541 -0.67834818 255
0.1932326 -0.13960101 -0.79076511 255
0.2496049 -0.089424849 -0.66441768 255
0.2052463 -0.069825627 -0.69995451 255
0.2189073 -0.01316142 -0.67947978 255
0.2442271 -0.1281298 -0.68918818 255
0.1924265 -0.1489365 -0.79504412 255
0.2491395 -0.099827833 -0.66964531 255
0.2000939 -0.107685 -0.74721831 255
0.24212611 -0.133764 -0.68965799 255
0.2028268 -0.01050334 -0.69024873 255
0.24437989 -0.044304889 -0.63996857 255
0.2202114 -0.020880429 -0.67303991 255
0.1988107 -0.049094129 -0.69831961 255
0.2292062 -0.1509064 -0.70894241 255
0.20129821 -0.078953713 -0.71928197 255
0.29146141 -0.1515664 -0.72883588 255
0.1996074 -0.15352701 -0.7893396 255
0.2380196 -0.1896026 -0.72951502 255
0.2045406 -0.089746088 -0.71958148 255
0.2020333 -0.1185725 -0.74883378 255
0.1937726 -0.15946651 -0.80806422 255
0.24916761 -0.1099067 -0.67783648 255
0.2007371 -0.1193923 -0.75322241 255
0.24680141 -0.1447036 -0.69988418 255
0.2373535 -0.1482676 -0.6999476 255
0.193298 -0.1552024 -0.81739253 255
0.1928741 -0.1600479 -0.81953692 255
0.24883109 -0.1192147 -0.68303519 255
0.1991345 -0.05919975 -0.6992718 255
0.20089699 -0.1089198 -0.7398656 255
0.2166018 -0.024471451 -0.66974843 255
0.2391734 -0.2107739 -0.7446273 255
0.19909111 -0.072633728 -0.7197755 255
0.2295398 -0.18252119 -0.72936177 255
0.2035916 -0.078087837 -0.7095468 255
0.29960239 -0.1694037 -0.74750942 255
0.1960234 -0.1681191 -0.8075608 255
0.2308189 -0.19893479 -0.74239677 255
0.248832 -0.1153387 -0.67996103 255
0.2000389 -0.12953129 -0.75952679 255
0.2012476 -0.139587 -0.76950341 255
0.2298335 8.6039297e-05 -0.65961671 255
0.2495686 -0.1890624 -0.73308039 255
0.32165381 -0.1590531 -0.74462771 255
0.2193832 -0.1412781 -0.71831191 255
0.22713789 -0.06998837 -0.64894772 255
0.2386836 -0.007746235 -0.65866232 255
0.25991291 -0.19128449 -0.73998952 255
0.2194702 -0.1919827 -0.75928032 255
0.2247235 -0.1177 -0.68842608 255
0.232703 6.2540174e-05 -0.65999961 255
0.2597543 -0.18983001 -0.73797578 255
0.2392284 -0.01159447 -0.65546638 255
0.23058359 -0.018638819 -0.64920193 255
0.22902329 -0.088773593 -0.65979791 255
0.2288644 -0.099726222 -0.6690557 255
0.2398254 -0.001244038 -0.66148102 255
0.25815409 -0.1987084 -0.74448168 255
0.2294807 -0.074217498 -0.64944851 255
0.22928341 -0.1296766 -0.68945581 255
0.2387882 -0.021519991 -0.65044123 255
0.2298709 -0.113855 -0.67907763 255
0.1952675 -0.0059818481 -0.69911188 255
0.24990951 -0.001502588 -0.66230011 255
0.2133489 -0.1903788 -0.77499503 255
0.26682681 -0.1994282 -0.74869043 255
0.248891 -0.0066233869 -0.65945381 255
0.21737599 -0.19273201 -0.76999563 255
0.261428 -0.1914717 -0.73965073 255
0.19947369 -0.01360215 -0.68894899 255
0.2492366 -0.01187807 -0.65630239 255
0.2487254 -0.028640751 -0.64719439 255
0.1990173 -0.029542681 -0.68905109 255
0.2499065 -0.022281479 -0.65000439 255
0.2499069 -0.03018336 -0.64693022 255
0.2487036 7.1853399e-05 -0.66256982 255
0.212304 -0.1884411 -0.77830273 255
0.2685743 -0.18891621 -0.7421515 255
0.2499502 -0.04916076 -0.64384651 255
0.2078875 -0.005830213 -0.692191 255
0.25750181 -0.001124129 -0.6647011 255
0.27025479 -0.1997346 -0.74997342 255
0.20889211 -0.0080304146 -0.68991691 255
0.25865969 -0.0086071193 -0.65931869 255
0.2042295 -0.01067665 -0.68993503 255
0.25969869 -0.01158269 -0.65908629 255
0.2489325 -0.1389887 -0.6994077 255
0.24998561 -0.1489614 -0.70429558 255
0.2481295 -0.158709 -0.70983422 255
0.24991409 -0.15870871 -0.71148461 255
0.2481705 -0.1699684 -0.71904743 255
0.2495445 -0.1788228 -0.72488832 255
0.20317011 -0.02507988 -0.67992502 255
0.2588889 -0.028702751 -0.64902061 255
0.2495697 -0.208637 -0.7484507 255
0.2002659 -0.029080439 -0.68569791 255
0.25929749 -0.020191129 -0.65405262 255
0.2499496 -0.069729701 -0.65101957 255
0.20437761 -0.03728351 -0.67760551 255
0.2599141 -0.031638119 -0.64879137 255
0.2058693 -0.04987501 -0.67932129 255
0.25873929 -0.049160331 -0.64597982 255
0.26912689 -0.001573101 -0.66517568 255
0.2090203 -0.058897808 -0.6786167 255
0.25968379 -0.056888651 -0.64884281 255
0.2086865 -0.061734449 -0.67869139 255
0.25497961 -0.061924901 -0.64989477 255
0.20880181 -0.069340236 -0.68993711 255
0.2593751 -0.069208167 -0.65608472 255
0.2093595 -0.076709241 -0.68981242 255
0.25911531 -0.075571269 -0.65921682 255
0.26199359 8.5130327e-05 -0.66472143 255
0.21046589 -0.0067648739 -0.689565 255
0.26433131 -0.0089864125 -0.65907508 255
0.2091561 -0.084013224 -0.69703078 255
0.25914949 -0.089132883 -0.66945612 255
0.25898209 -0.090554982 -0.66949362 255
0.2099058 -0.099610403 -0.70915949 255
0.2596294 -0.097520627 -0.67857111 255
0.2097322 -0.1010854 -0.70919842 255
0.25720891 -0.1059818 -0.67911237 255
0.2551271 -0.1115647 -0.67957789 255
0.2494099 -0.199551 -0.74028897 255
0.2091874 -0.1130264 -0.7185424 255
0.2585392 -0.1192518 -0.6880371 255
0.20918471 -0.1219855 -0.72981471 255
0.25877169 -0.1297425 -0.69720751 255
0.25341639 -0.1394054 -0.69942969 255
0.25990489 -0.1493201 -0.70925051 255
0.2501123 -0.15441281 -0.70939082 255
0.2091693 -0.1505826 -0.74928749 255
0.25989991 -0.1591696 -0.71642441 255
0.25788409 -0.16637389 -0.71892458 255
0.2125697 -0.01085737 -0.68602049 255
0.2698878 -0.01188876 -0.65988213 255
0.20632461 -0.072913527 -0.69971329 255
0.25955409 -0.078768536 -0.66424209 255
0.2518034 -0.14070261 -0.69979042 255
0.2089667 -0.1605867 -0.75957978 255
0.2582157 -0.1690966 -0.72294933 255
0.25649059 -0.1791797 -0.72948331 255
0.25150031 -0.1802804 -0.72854972 255
0.25655621 -0.20463841 -0.7489379 255
0.25670069 -0.2061487 -0.75095493 255
0.2149522 -0.12859 -0.71930277 255
0.26015201 -0.1206001 -0.68972588 255
0.26925951 -0.02191766 -0.654899 255
0.2188329 -0.020710099 -0.67334819 255
0.26468679 -0.02882218 -0.64977342 255
0.26896179 -0.03920798 -0.64881742 255
0.2096314 -0.13920119 -0.73996192 255
0.25988799 -0.1396559 -0.70208132 255
0.2056614 -0.058970999 -0.68961477 255
0.2597388 -0.05919173 -0.6508798 255
0.2080825 -0.1098624 -0.71878952 255
0.2588312 -0.1098443 -0.68284827 255
0.26866451 -0.032953009 -0.65093333 255
0.210761 -0.049666729 -0.67002982 255
0.26966301 -0.044927541 -0.6486606 255
0.2101633 -0.05952467 -0.67631167 255
0.2646192 -0.052753609 -0.6497885 255
0.2065749 -0.097566187 -0.71912658 255
0.2598266 -0.098615363 -0.68057638 255
0.2099079 -0.1742201 -0.76961619 255
0.25982469 -0.1794246 -0.73078698 255
0.2164508 -0.098908082 -0.69949841 255
0.2619462 -0.090712957 -0.66985548 255
0.2685129 -0.01171888 -0.66018963 255
0.2693128 -0.0597484 -0.65693641 255
0.21001931 -0.06871298 -0.68659079 255
0.26941919 -0.063286588 -0.65998691 255
0.2104252 -0.079761013 -0.68957412 255
0.26391241 -0.071656197 -0.65916878 255
0.2674557 -0.079836257 -0.66862339 255
0.2115449 -0.089808688 -0.69854587 255
0.2635034 -0.089460671 -0.66950732 255
0.2112281 -0.099955171 -0.70783907 255
0.2686148 -0.096773557 -0.67861122 255
0.26946419 -0.099919587 -0.68559408 255
0.2108236 -0.1091913 -0.71510249 255
0.26884249 -0.1096454 -0.68880743 255
0.2128534 -0.1195343 -0.71772259 255
0.2635307 -0.1178873 -0.68999523 255
0.2112474 -0.1299146 -0.72935349 255
0.26848719 -0.12598979 -0.69810909 255
0.2146084 -0.139539 -0.72860187 255
0.26167041 -0.1341494 -0.69963348 255
0.2109012 -0.13960961 -0.73762852 255
0.2698957 -0.1399314 -0.70701629 255
0.2130345 -0.1489459 -0.73920089 255
0.26646551 -0.1468401 -0.70983273 255
0.2112809 -0.1587 -0.74881542 255
0.26504141 -0.1593632 -0.7193734 255
0.2126341 -0.1689923 -0.75875968 255
0.26876289 -0.16806599 -0.72878832 255
0.2163488 -0.1788424 -0.75997829 255
0.26336381 -0.1751882 -0.72999561 255
0.21089619 -0.17917129 -0.76939517 255
0.2689501 -0.1798 -0.73796862 255
0.2633898 -0.2021922 -0.74945903 255
0.26887289 -0.2041468 -0.75438112 255
0.27021939 -0.009071067 -0.65980798 255
0.27977401 -0.01390816 -0.6597206 255
0.21044829 -0.1198351 -0.72440869 255
0.26840231 -0.1193081 -0.69300449 255
0.21041919 -0.14961509 -0.74490929 255
0.26997921 -0.1496979 -0.71417052 255
0.2147218 -0.16855291 -0.74804592 255
0.263026 -0.1637302 -0.71982408 255
0.2159694 -0.18945611 -0.76826078 255
0.26161069 -0.1899191 -0.73960978 255
0.27929759 -0.023665071 -0.65572828 255
0.26961869 -0.049745928 -0.65174448 255
0.26898909 -0.069902167 -0.66213232 255
0.21035799 -0.089268573 -0.70086092 255
0.26865289 -0.089046031 -0.6734792 255
0.27919671 -0.03166382 -0.65267682 255
0.2101738 -0.1279649 -0.7316429 255
0.268722 -0.12991691 -0.70215517 255
0.21024349 -0.1595497 -0.75519538 255
0.26873979 -0.15937839 -0.72264528 255
0.2102524 -0.1696047 -0.76748979 255
0.26894811 -0.1694528 -0.73079622 255
0.27344251 -0.03919157 -0.64986491 255
0.2743094 -0.04353486 -0.64967102 255
0.26924071 -0.079609558 -0.67027378 255
0.2687175 -0.19954459 -0.75031722 255
0.27906391 -0.049295019 -0.65578061 255
0.27908909 -0.055385321 -0.65987372 255
0.27250049 -0.06080864 -0.65929782 255
0.27915531 -0.06900759 -0.66908127 255
0.27552381 -0.075811014 -0.66989332 255
0.27864441 -0.079653382 -0.67329443 255
0.27708471 -0.08861655 -0.67876649 255
0.27918869 -0.098669633 -0.68854302 255
0.2799291 -0.1047087 -0.68837738 255
0.2788246 -0.1191012 -0.6998961 255
0.27013931 -0.1273852 -0.69978893 255
0.2790038 -0.12861089 -0.70702893 255
0.27540901 -0.137013 -0.7098822 255
0.27870461 -0.14849029 -0.71836758 255
0.27187499 -0.1553591 -0.71989483 255
0.27883819 -0.15996359 -0.7265352 255
0.2771956 -0.1656839 -0.72997677 255
0.27911401 -0.16865259 -0.73364657 255
0.27899459 -0.179124 -0.73982131 255
0.2753883 -0.1804284 -0.73857838 255
0.27980691 -0.18798161 -0.74988657 255
0.2782816 -0.2001401 -0.75842547 255
0.27392071 -0.091160923 -0.67947412 255
0.27862349 -0.1097769 -0.69276822 255
0.27809319 -0.1986206 -0.75641811 255
0.27898309 -0.1398188 -0.71420652 255
0.27922729 -0.05893892 -0.66291708 255
0.27977499 -0.08895874 -0.68533778 255
0.27747199 -0.1789359 -0.74016178 255
0.27808011 -0.1893702 -0.75027281 255
0.18840811 -0.036062539 -0.71806562 255
0.28935531 -0.03945582 -0.65757799 255
0.27892011 -0.1498118 -0.72036892 255
0.2891168 -0.1885401 -0.75600249 255
0.28701839 -0.1962388 -0.75852102 255
0.1893335 -0.041692611 -0.71990812 255
0.28908271 -0.04344428 -0.65866369 255
0.28410909 -0.050005149 -0.65977591 255
0.18947171 -0.05775838 -0.72909951 255
0.2888723 -0.058604728 -0.66690832 255
0.28881299 -0.06245159 -0.668971 255
0.18941601 -0.075757243 -0.73833418 255
0.28881839 -0.079121523 -0.67921668 255
0.28864741 -0.080573902 -0.67925489 255
0.28941351 -0.089108318 -0.68830597 255
0.2874608 -0.09333922 -0.68874258 255
0.18944719 -0.099998914 -0.75984591 255
0.28954399 -0.09969981 -0.69544971 255
0.28918159 -0.1094661 -0.69962949 255
0.2890062 -0.1109562 -0.69966871 255
0.2888425 -0.1290634 -0.70995229 255
