# .PCD v0.7 - Point Cloud Data file format
VERSION 0.7
FIELDS x y z rgb
SIZE 4 4 4 4
TYPE F F F U
COUNT 1 1 1 1
WIDTH 1100
HEIGHT 1
VIEWPOINT 0 0 0 1 0 0 0
POINTS 1100
DATA ascii
0.072535388 0.0064240508 0.31500003 8603969
0.073278472 0.0064240508 0.31500003 8472640
0.074269243 0.0065478976 0.31500003 8538944
0.075507708 0.0067955907 0.31500003 8737348
0.076498479 0.0065478976 0.31500003 8606017
0.077736951 0.0067955907 0.31500003 8276795
0.078480028 0.0067955907 0.31500003 8341307
0.079718493 0.0065478976 0.31500003 9063749
0.080709264 0.0064240508 0.31500003 9194825
0.08145234 0.0064240508 0.31500003 8997191
0.082195424 0.0060525108 0.31500003 8996421
0.098543175 0.0067955907 0.31500003 10313839
0.058416877 0.0075386702 0.31500003 6563099
0.059531495 0.0075386702 0.31500003 6891294
0.060646117 0.0075386702 0.31500003 7219744
0.061389193 0.0075386702 0.31500003 7482916
0.062503815 0.0075386702 0.31500003 8272175
0.063618429 0.0075386702 0.31500003 9261389
0.064361513 0.0075386702 0.31500003 10182491
0.065847673 0.0075386702 0.31500003 10052956
0.066590756 0.0075386702 0.31500003 9789784
0.067333832 0.0075386702 0.31500003 10249820
0.068448454 0.0075386702 0.31500003 10251102
0.069563068 0.0075386702 0.31500003 10448995
0.070306152 0.0075386702 0.31500003 10386034
0.071420766 0.0075386702 0.31500003 9333606
0.072535388 0.0075386702 0.31500003 8938848
0.073278472 0.0075386702 0.31500003 8938588
0.074393094 0.0075386702 0.31500003 8542282
0.075507708 0.0075386702 0.31500003 8541764
0.076622322 0.0075386702 0.31500003 8541762
0.077736951 0.0075386702 0.31500003 8278590
0.078480028 0.0075386702 0.31500003 8276795
0.079594642 0.0075386702 0.31500003 8933190
0.080709264 0.0075386702 0.31500003 8933190
0.097800091 0.0075386702 0.31500003 9919335
0.056930721 0.0082817497 0.31500003 6497306
0.057673797 0.0082817497 0.31500003 6563097
0.058416877 0.0082817497 0.31500003 6628890
0.061389193 0.0082817497 0.31500003 7548709
0.062503815 0.0082817497 0.31500003 8403507
0.063618429 0.0082817497 0.31500003 9193282
0.064361513 0.0082817497 0.31500003 10578533
0.065476134 0.0082817497 0.31500003 10381925
0.066590756 0.0082817497 0.31500003 10052189
0.067333832 0.0082817497 0.31500003 10841957
0.068448454 0.0082817497 0.31500003 10449769
0.069563068 0.0082817497 0.31500003 10647408
0.070306152 0.0082817497 0.31500003 11243404
0.071420766 0.0082817497 0.31500003 9863550
0.072535388 0.0082817497 0.31500003 8876139
0.073278472 0.0082817497 0.31500003 9071717
0.074393094 0.0082817497 0.31500003 8411979
0.075507708 0.0082817497 0.31500003 8476741
0.076622322 0.0082817497 0.31500003 8410946
0.077736951 0.0082817497 0.31500003 8279360
0.078480028 0.0082817497 0.31500003 8277565
0.079594642 0.0082817497 0.31500003 8868421
0.097800091 0.0082817497 0.31500003 9722985
0.054701481 0.0097679095 0.31500003 6167828
0.055444557 0.0090248296 0.31500003 6233621
0.056187637 0.0090248296 0.31500003 6365207
0.063618429 0.0090248296 0.31500003 9326153
0.064361513 0.0093963696 0.31500003 10841965
0.065476134 0.0093963696 0.31500003 10975351
0.066590756 0.0093963696 0.31500003 10448493
0.067333832 0.0093963696 0.31500003 11105906
0.068448454 0.0093963696 0.31500003 10977145
0.069563068 0.0090248296 0.31500003 11175296
0.074393094 0.0090248296 0.31500003 8283475
0.075507708 0.0093963696 0.31500003 8217163
0.076622322 0.0093963696 0.31500003 8150340
0.077736951 0.0093963696 0.31500003 8083521
0.078480028 0.0093963696 0.31500003 8148287
0.079223104 0.0090248296 0.31500003 8607041
0.053958401 0.010510989 0.31500003 6102548
0.065847673 0.010510989 0.31500003 11306121
0.066590756 0.010510989 0.31500003 11240328
0.067333832 0.010510989 0.31500003 10713212
0.068076909 0.010510989 0.31500003 11041916
0.075507708 0.010510989 0.31500003 7824973
0.076993868 0.010510989 0.31500003 7823687
0.077736951 0.010510989 0.31500003 7690816
0.097800091 0.010510989 0.31500003 9986159
0.052472241 0.011997147 0.31500003 6102546
0.053215317 0.011254068 0.31500003 6168341
0.067333832 0.011625608 0.31500003 11042952
0.068076909 0.011254068 0.31500003 11041662
0.076746173 0.011749455 0.31500003 7364932
0.077736951 0.011625608 0.31500003 7363647
0.078480028 0.011997147 0.31500003 7494974
0.079223104 0.011997147 0.31500003 7364158
0.097800091 0.011625608 0.31500003 9786722
0.051729161 0.012740227 0.31500003 6167824
0.052472241 0.012740227 0.31500003 6167824
0.076622322 0.012740227 0.31500003 6643263
0.077736951 0.012740227 0.31500003 6773564
0.078480028 0.012740227 0.31500003 7036218
0.079223104 0.012740227 0.31500003 6773046
0.098543175 0.012740227 0.31500003 10050919
0.050986078 0.013483306 0.31500003 6365203
0.051729161 0.013483306 0.31500003 6167824
0.076622322 0.013483306 0.31500003 6314814
0.077736951 0.013483306 0.31500003 6445112
0.078480028 0.013483306 0.31500003 6444851
0.079594642 0.013483306 0.31500003 6050347
0.099286251 0.013483306 0.31500003 10248300
0.10002933 0.013483306 0.31500003 9854058
0.049499922 0.014969465 0.31500003 6562582
0.05061454 0.014597926 0.31500003 6233617
0.075507708 0.014226386 0.31500003 6185040
0.076622322 0.014597925 0.31500003 5657403
0.077736951 0.014597926 0.31500003 5458990
0.078480028 0.014226386 0.31500003 5655850
0.079594642 0.014597926 0.31500003 5392163
0.080709264 0.014597926 0.31500003 5457440
0.10040087 0.014226386 0.31500003 9919335
0.10151549 0.014597926 0.31500003 10051435
0.10225857 0.014597926 0.31500003 10512244
0.10337318 0.014969465 0.31500003 10511730
0.10560243 0.014969465 0.31500003 11234166
0.10671705 0.014969465 0.31500003 11171968
0.048756842 0.015712546 0.31500003 6562582
0.049499922 0.015712546 0.31500003 6496789
0.076250784 0.015712546 0.31500003 4867379
0.079966187 0.015712546 0.31500003 4733983
0.080709264 0.015712546 0.31500003 4865051
0.08145234 0.015712546 0.31500003 4799004
0.10337318 0.015712546 0.31500003 10708078
0.10448781 0.015712546 0.31500003 10640748
0.10560243 0.015712546 0.31500003 10903150
0.10671705 0.015712546 0.31500003 11037302
0.10746013 0.015712546 0.31500003 11307918
0.048385303 0.016455626 0.31500003 6562326
0.076250784 0.016455626 0.31500003 4472621
0.079966187 0.016455626 0.31500003 4536604
0.080709264 0.016455626 0.31500003 4535832
0.08145234 0.016455626 0.31500003 4535834
0.10746013 0.016455626 0.31500003 10845570
0.047270682 0.017570244 0.31500003 6496789
0.048013765 0.017198704 0.31500003 6496789
0.076746173 0.017446397 0.31500003 4141859
0.077736951 0.017941784 0.31500003 3877400
0.079966187 0.017941784 0.31500003 4009240
0.080709264 0.017570244 0.31500003 4075285
0.08145234 0.017570244 0.31500003 4075285
0.046527606 0.018684864 0.31500003 6300695
0.047270682 0.018684864 0.31500003 6496789
0.077736951 0.018684864 0.31500003 3811096
0.078480028 0.018684864 0.31500003 3745816
0.079594642 0.018684864 0.31500003 3811863
0.080709264 0.018684864 0.31500003 3943445
0.046527606 0.019427944 0.31500003 6432279
0.045784526 0.020914102 0.31500003 6564380
0.046527606 0.020171024 0.31500003 6432792
0.045784526 0.021657182 0.31500003 6629658
0.045784526 0.022400264 0.31500003 6760474
0.10968937 0.022400264 0.31500003 12290449
0.045784526 0.023514882 0.31500003 6760474
0.10968937 0.023514882 0.31500003 12619411
0.045784526 0.0246295 0.31500003 6695705
0.10968937 0.0246295 0.31500003 12947092
0.045784526 0.025372582 0.31500003 6695705
0.045784526 0.0264872 0.31500003 6826521
0.045784526 0.027601819 0.31500003 6958107
0.10894629 0.027601819 0.31500003 12684706
0.045784526 0.028344899 0.31500003 6958107
0.10894629 0.028344899 0.31500003 12489644
0.045041442 0.029459517 0.31500003 6892056
0.10820321 0.029459517 0.31500003 13879277
0.045041442 0.030574137 0.31500003 6892312
0.044298366 0.032060295 0.31500003 6827289
0.11043245 0.034289535 0.31500003 13479619
0.086456276 0.00085635681 0.317 10186105
0.085708484 0.0016041544 0.317 9261141
0.071500331 0.0023519518 0.317 7614250
0.072622024 0.0023519518 0.317 7350565
0.073743723 0.0023519518 0.317 7547687
0.074491516 0.0023519518 0.317 7679273
0.075613216 0.0023519518 0.317 7679273
0.084960692 0.0023519518 0.317 9654355
0.08543811 0.0023445326 0.31600001 9195087
0.067761347 0.0038475466 0.317 7877422
0.068509139 0.0038475466 0.317 8075055
0.069256939 0.0034736479 0.317 8140335
0.070322834 0.0034706136 0.31675002 7745833
0.071387559 0.0034675794 0.31650001 7877417
0.072507486 0.0034675794 0.31650001 7876904
0.073627412 0.0034675794 0.31650001 7877419
0.074491516 0.0034736479 0.317 7811626
0.075613216 0.0034736481 0.317 7942957
0.076734915 0.0034736479 0.317 8206129
0.077482708 0.0034736479 0.317 8271922
0.078479774 0.0035982809 0.317 8272692
0.0797261 0.0038475466 0.317 8404536
0.0804739 0.0038475466 0.317 8996675
0.0815956 0.0038475466 0.317 9917266
0.082717292 0.0038475466 0.317 10312794
0.083465092 0.0038475466 0.317 8930628
0.084372818 0.0033457556 0.31666669 9061446
0.066265747 0.0045953444 0.317 7681326
0.067387447 0.0045953444 0.317 7878449
0.068509139 0.0045953444 0.317 8075825
0.069411188 0.0045808484 0.31600001 8075825
0.070529342 0.0045808484 0.31600001 8008490
0.07127478 0.0045808484 0.31600001 8271662
0.072392941 0.0045808484 0.31600001 8338226
0.073511094 0.0045808484 0.31600001 8273204
0.074256532 0.0045808484 0.31600001 7944239
0.075374693 0.0045808484 0.31600001 8206898
0.076492846 0.0045808484 0.31600001 8470581
0.077611014 0.0045808484 0.31600001 8405045
0.078729168 0.0045808484 0.31600001 8339510
0.0797261 0.0045953444 0.317 8339510
0.0804739 0.0045953444 0.317 9325386
0.08146631 0.0045880964 0.31650001 9588814
0.082456358 0.0045808484 0.31600001 9786450
0.083201796 0.0045808484 0.31600001 9062214
0.060283367 0.005343142 0.317 6628638
0.061031166 0.005343142 0.317 6891297
0.062526762 0.005343142 0.317 7219746
0.064396255 0.005343142 0.317 8272694
0.065517955 0.005343142 0.317 9393489
0.066265747 0.005343142 0.317 8999755
0.067387447 0.005343142 0.317 8801860
0.068293028 0.0053262864 0.31600001 8406073
0.069411188 0.0053262864 0.31600001 8340022
0.070529342 0.0053262864 0.31600001 8075823
0.07127478 0.0053262864 0.31600001 8338997
0.072392941 0.0053262864 0.31600001 8339512
0.073511094 0.0053262864 0.31600001 8274487
0.074256532 0.0053262864 0.31600001 8274487
0.075374693 0.0053262864 0.31600001 8537659
0.076492846 0.0053262864 0.31600001 8472377
0.077611014 0.0053262864 0.31600001 8538170
0.078729168 0.0053262864 0.31600001 8340280
0.079474598 0.0053262864 0.31600001 8340280
0.080592766 0.0053262864 0.31600001 9325386
0.08171092 0.0053262864 0.31600001 9391179
0.056544382 0.0068387366 0.317 6300697
0.057574533 0.00682795 0.31650001 6431770
0.058695048 0.0064540515 0.31650001 6563099
0.059441663 0.0064540515 0.31650001 6694685
0.060283367 0.006090939 0.317 6825758
0.061464738 0.006333014 0.31666669 7153953
0.062428139 0.0064540515 0.31650001 7613732
0.063389972 0.0065750889 0.31633332 8075054
0.064452775 0.006333014 0.31666669 8865346
0.065311275 0.0064444439 0.31600001 9591896
0.066429429 0.0064444439 0.31600001 9263440
0.06754759 0.0060717249 0.31600001 8998723
0.068293028 0.0060717249 0.31600001 8998208
0.069038466 0.0060717249 0.31600001 9064001
0.075374693 0.0060717249 0.31600001 8735808
0.077611014 0.0060717249 0.31600001 8539454
0.078729168 0.0060717249 0.31600001 8340793
0.079474598 0.0060717249 0.31600001 8275000
0.055796582 0.0075865341 0.317 6299927
0.056366012 0.0075626019 0.31600001 6431513
0.057484165 0.0075626019 0.31600001 6497306
0.065311275 0.0075626019 0.31600001 10316646
0.09885601 0.0075626019 0.31600001 10248046
0.10066443 0.0075865341 0.317 10248048
0.05430099 0.0083343321 0.317 6234650
0.05533468 0.0083211865 0.31650001 6299927
0.056366012 0.0083080409 0.31600001 6431513
0.09885601 0.0083080409 0.31600001 9788780
0.052805394 0.0098299272 0.317 6168857
0.05355319 0.0090821292 0.317 5971991
0.054435272 0.0093115093 0.31633332 6168085
0.099916637 0.0094560282 0.317 9853545
0.10066443 0.0098299272 0.317 9854058
0.052431494 0.010577724 0.317 6300697
0.053384256 0.010544356 0.31600001 6037525
0.09885601 0.010544356 0.31600001 9921136
0.099916637 0.010577724 0.317 9657964
0.10066443 0.010577724 0.317 9657964
0.10141223 0.010577724 0.317 9919851
0.10216003 0.010577724 0.317 9854310
0.051309798 0.011325522 0.317 6432283
0.052348204 0.011307659 0.31650001 6234647
0.09885601 0.011289796 0.31600001 10118515
0.099916637 0.011325522 0.317 9921136
0.10066443 0.011325522 0.317 9855343
0.10141223 0.011325522 0.317 9986927
0.10253392 0.011325522 0.317 10117226
0.050562002 0.012821117 0.317 6496789
0.051450372 0.012296408 0.31633332 6365974
0.09885601 0.012035233 0.31600001 10183277
0.099759042 0.012426996 0.31650001 9985899
0.10050565 0.012426996 0.31650001 9920364
0.10144744 0.012544888 0.31633332 10117743
0.10265856 0.012322585 0.317 10117741
0.10365563 0.012447218 0.317 10314608
0.10440342 0.012821117 0.317 10642804
0.10552512 0.012821117 0.317 11037816
0.10664681 0.012821117 0.317 12028561
0.049814202 0.013568914 0.317 6563095
0.050402503 0.01352611 0.31600001 6365203
0.10146505 0.01352611 0.31600001 10051693
0.10258319 0.01352611 0.31600001 10249331
0.10332864 0.01352611 0.31600001 10249331
0.10440342 0.013568914 0.317 10840183
0.10552512 0.013568914 0.317 10971509
0.10664681 0.013568914 0.317 11630721
0.04831861 0.014316712 0.317 6498074
0.049361732 0.014294131 0.31650001 6563095
0.050402503 0.014271549 0.31600001 6233617
0.10332864 0.014271549 0.31600001 10315124
0.1044468 0.014271549 0.31600001 10774132
0.10556496 0.014271549 0.31600001 11169400
0.10631039 0.014271549 0.31600001 11695744
0.10705583 0.014271549 0.31600001 11371914
0.046449117 0.015812306 0.317 6433052
0.04757081 0.015438408 0.317 6562841
0.048465472 0.015281308 0.31633332 6562840
0.077611014 0.015762426 0.31600001 4538156
0.078729168 0.015389707 0.31600001 4997669
0.079474598 0.015762426 0.31600001 4471842
0.10481951 0.015016987 0.31600001 10707824
0.045327418 0.016560104 0.317 6500132
0.046375263 0.016533986 0.31650001 6367003
0.047420748 0.016507866 0.31600001 6562584
0.077611014 0.016507866 0.31600001 4209190
0.078729168 0.016507866 0.31600001 4273695
0.079474598 0.016507866 0.31600001 4273695
0.044579621 0.017307902 0.317 6565925
0.045628645 0.017653322 0.31650001 6302239
0.04647528 0.017519983 0.31633332 6301209
0.07798373 0.017253304 0.31600001 4011039
0.078729168 0.017626023 0.31600001 3943706
0.079474598 0.017626023 0.31600001 3943963
0.080220044 0.017253304 0.31600001 4206619
0.043831825 0.018429598 0.317 6303780
0.044579621 0.018429598 0.317 6499362
0.045528233 0.018534457 0.31666669 6433312
0.043457925 0.019551294 0.317 6501159
0.044579621 0.019551294 0.317 6564896
0.045557149 0.01948962 0.31600001 6498587
0.043457925 0.020299092 0.317 6500900
0.044509307 0.020639794 0.31650001 6499102
0.04543291 0.020483537 0.31600001 6564380
0.042336229 0.021794686 0.317 6829351
0.043457925 0.021420788 0.317 6565921
0.044438995 0.021725934 0.31600001 6629658
0.04518443 0.021725934 0.31600001 6695451
0.042336229 0.022542486 0.317 6763558
0.043457925 0.022542486 0.317 6499871
0.044438995 0.022471374 0.31600001 6629658
0.04518443 0.022471374 0.31600001 6760474
0.042336229 0.023290282 0.317 6631457
0.043457925 0.023290282 0.317 6564893
0.044438995 0.023589531 0.31600001 6563865
0.04518443 0.023589531 0.31600001 6826267
0.11078303 0.023589531 0.31600001 12619411
0.042336229 0.024038078 0.317 6762273
0.043457925 0.024411976 0.317 6630429
0.044438995 0.024707688 0.31600001 6498072
0.04518443 0.024707688 0.31600001 6695705
0.11078303 0.024707688 0.31600001 12881299
0.043457925 0.025533674 0.317 6630428
0.044579621 0.025533674 0.317 6498072
0.04518443 0.025453128 0.31600001 6629658
0.11078303 0.025453128 0.31600001 12880788
0.043831825 0.026281472 0.317 6695451
0.044579621 0.026281472 0.317 6628888
0.04518443 0.026571285 0.31600001 6694680
0.11150749 0.026281472 0.317 12947096
0.043582559 0.027278535 0.317 6630169
0.044509307 0.027359355 0.31650001 6694935
0.04518443 0.027689444 0.31600001 6826521
0.1111336 0.027029268 0.317 13011092
0.043831825 0.028524864 0.317 6826521
0.044438995 0.028434882 0.31600001 6892314
0.04518443 0.028434882 0.31600001 6892314
0.11038581 0.028524864 0.317 12881570
0.043831825 0.029272661 0.317 6892314
0.044438995 0.029553039 0.31600001 6892313
0.10929214 0.029553039 0.31600001 13808849
0.11038581 0.029272661 0.317 12619175
0.043831825 0.030394357 0.317 6761496
0.044438995 0.030671198 0.31600001 6892312
0.1085467 0.030671198 0.31600001 14076921
0.109638 0.030768257 0.317 14534379
0.11038581 0.030020459 0.317 13541560
0.043831825 0.031516053 0.317 6893082
0.1085467 0.031416636 0.31600001 14272240
0.109638 0.031516053 0.317 14469873
0.043693554 0.032162074 0.31600001 6893595
0.10929214 0.032162074 0.31600001 14798066
0.11038581 0.032263849 0.317 15257071
0.1111336 0.033011649 0.317 14006742
0.07397636 0.00085905829 0.31800002 7153701
0.085978858 0.00085905829 0.31800002 9329510
0.070975728 0.0016092148 0.31800002 7219494
0.07172589 0.0016092148 0.31800002 7219240
0.072476044 0.0016092148 0.31800002 7087654
0.073601276 0.0016092148 0.31800002 7284517
0.074726515 0.0016092148 0.31800002 7416103
0.075476669 0.0016092148 0.31800002 7613482
0.076601908 0.0016092148 0.31800002 7876912
0.077727139 0.0016092148 0.31800002 8403514
0.085228711 0.0016092148 0.31800002 9195346
0.068725258 0.0023593714 0.31800002 7547687
0.06947542 0.0023593714 0.31800002 7613480
0.070600651 0.0023593714 0.31800002 7613737
0.076976985 0.0023593714 0.31800002 8074031
0.077727139 0.0023593714 0.31800002 8271410
0.078477301 0.0023593714 0.31800002 8271410
0.079602525 0.0023593714 0.31800002 8404284
0.080727771 0.0023593714 0.31800002 8864837
0.081477925 0.0023593714 0.31800002 8799044
0.082978241 0.0023593714 0.31800002 9062216
0.083728388 0.0023593714 0.31800002 9062216
0.084478542 0.0023593714 0.31800002 9456976
0.065724634 0.0038596843 0.31800002 7022885
0.066474788 0.0038596843 0.31800002 7482664
0.067474999 0.0033595797 0.31800002 7482406
0.068725258 0.0031095278 0.31800002 7811113
0.079602525 0.0031095278 0.31800002 8535100
0.080727771 0.0031095278 0.31800002 8864065
0.081477925 0.0031095278 0.31800002 8929858
0.082603157 0.0031095278 0.31800002 9061444
0.083728388 0.0031095278 0.31800002 9127239
0.060473539 0.0046098409 0.31800002 6628638
0.061598774 0.0046098409 0.31800002 6760224
0.063474171 0.0046098409 0.31800002 7154469
0.064599395 0.0046098409 0.31800002 7483434
0.065724634 0.0046098409 0.31800002 7878192
0.058598146 0.0053599975 0.31800002 6366236
0.059723381 0.0053599975 0.31800002 6497822
0.061973851 0.0053599975 0.31800002 6957344
0.063474171 0.0053599975 0.31800002 7614504
0.055972598 0.0068603102 0.31800002 6169370
0.056722756 0.0061101536 0.31800002 6300443
0.057472914 0.0061101536 0.31800002 6366490
0.058223069 0.0061101536 0.31800002 6497306
0.054472286 0.0076104668 0.31800002 6169372
0.055222444 0.0076104668 0.31800002 6168857
0.053722128 0.0083606234 0.31800002 5972507
0.052596897 0.0094858585 0.31800002 6235163
0.10098199 0.0091107804 0.31800002 9919081
0.10173215 0.0094858585 0.31800002 9984871
0.1024823 0.0094858585 0.31800002 10182246
0.050721508 0.010611093 0.31800002 6433310
0.051471658 0.010611093 0.31800002 6301724
0.10323246 0.010611093 0.31800002 10313577
0.050721508 0.01136125 0.31800002 6432281
0.10398262 0.01136125 0.31800002 10445677
0.049721297 0.012611511 0.31800002 6563609
0.050721508 0.012111406 0.31800002 6432281
0.10473277 0.012111406 0.31800002 10774130
0.047720879 0.013611719 0.31800002 6630173
0.048471037 0.013611719 0.31800002 6630173
0.049221192 0.013611719 0.31800002 6760474
0.046595648 0.014361876 0.31800002 6499616
0.047720879 0.014361876 0.31800002 6498074
0.044720255 0.015862189 0.31800002 6698281
0.045470409 0.015862189 0.31800002 6435109
0.046595648 0.015112031 0.31800002 6499102
0.044720255 0.016612345 0.31800002 6763304
0.043595016 0.017362501 0.31800002 6634029
0.043219939 0.018487737 0.31800002 6568748
0.042469785 0.020363128 0.31800002 6830380
0.040969469 0.02186344 0.31800002 6767419
0.042469785 0.021113284 0.31800002 6830121
0.040594392 0.022613598 0.31800002 6572094
0.041719627 0.022613598 0.31800002 6830382
0.040969469 0.023363754 0.31800002 6437421
0.041719627 0.023363754 0.31800002 6764074
0.040969469 0.024488989 0.31800002 6371113
0.041719627 0.024488989 0.31800002 6763558
0.042469785 0.024864066 0.31800002 6696480
0.040969469 0.025614224 0.31800002 6436136
0.041719627 0.025614224 0.31800002 6763043
0.042469785 0.025614224 0.31800002 6696478
0.041719627 0.02636438 0.31800002 6631457
0.042469785 0.02636438 0.31800002 6893857
0.043219939 0.02636438 0.31800002 6630685
0.041719627 0.027489614 0.31800002 6565662
0.042469785 0.027489614 0.31800002 6828318
0.043219939 0.027864695 0.31800002 6630939
0.11148418 0.027864695 0.31800002 12617364
0.11223434 0.027489614 0.31800002 12948123
0.041719627 0.028614849 0.31800002 6762525
0.042469785 0.028614849 0.31800002 6893084
0.043219939 0.028614849 0.31800002 6761498
0.042469785 0.029365005 0.31800002 6827291
0.043219939 0.029365005 0.31800002 6761498
0.042469785 0.030115161 0.31800002 6827289
0.043219939 0.03049024 0.31800002 6761496
0.11073403 0.030865319 0.31800002 13872070
0.043219939 0.031615477 0.31800002 6893082
0.11073403 0.031615477 0.31800002 15125739
0.043219939 0.032365631 0.31800002 6762523
0.11148418 0.032365631 0.31800002 13678039
0.043219939 0.033115789 0.31800002 6959902
0.11223434 0.033490866 0.31800002 13148858
0.074208982 -0.0006432712 0.31900001 7022633
0.071700603 0.00061092124 0.31900001 6891046
0.07270395 0.00048550198 0.31900001 6759460
0.073456466 0.00048550198 0.31900001 7087654
0.07471066 0.00036008275 0.31900001 7219239
0.075714014 0.00048550198 0.31900001 7482667
0.076466531 0.00048550198 0.31900001 7614510
0.077595308 0.00086175971 0.31900001 8141112
0.0847442 0.00086175971 0.31900001 9263458
0.069693893 0.0016142752 0.31900001 7087908
0.070446402 0.0016142752 0.31900001 7219494
0.078724079 0.0016142752 0.31900001 8272698
0.079476595 0.0016142752 0.31900001 8404284
0.080605365 0.0016142752 0.31900001 8799301
0.081734136 0.0016142752 0.31900001 8865352
0.082486652 0.0016142752 0.31900001 8996938
0.083991684 0.0016142752 0.31900001 9194063
0.0847442 0.0016142752 0.31900001 9195346
0.067436345 0.0023667908 0.31900001 7087908
0.068188861 0.0023667908 0.31900001 7284515
0.059911188 0.0038718216 0.31900001 6366751
0.060663704 0.0038718216 0.31900001 6497824
0.061416224 0.0038718216 0.31900001 6629410
0.062544994 0.0038718216 0.31900001 6628640
0.063673772 0.0038718216 0.31900001 7088678
0.064426281 0.0038718216 0.31900001 7022885
0.065429635 0.0033701446 0.31900001 6825506
0.066683829 0.0031193062 0.31900001 6891299
0.058406159 0.004624337 0.31900001 6235163
0.05953493 0.004624337 0.31900001 6366492
0.062921248 0.004624337 0.31900001 6957090
0.056901127 0.0053768526 0.31900001 6235163
0.057653647 0.0053768526 0.31900001 6300956
0.054643583 0.0068818834 0.31900001 6104093
0.055396099 0.0068818834 0.31900001 6103577
0.056148611 0.0061293677 0.31900001 6169370
0.053891066 0.0076343985 0.31900001 5907230
0.052386034 0.0083869146 0.31900001 6368548
0.053138554 0.0083869146 0.31900001 6169886
0.050881006 0.0098919449 0.31900001 6368033
0.051633518 0.0095156878 0.31900001 6301727
0.052386034 0.0091394298 0.31900001 6301470
0.05012849 0.010644461 0.31900001 6499103
0.04937597 0.011396977 0.31900001 6564380
0.05012849 0.011396977 0.31900001 6498074
0.047494687 0.012902007 0.31900001 6565153
0.048623458 0.012902007 0.31900001 6499101
0.04937597 0.012149491 0.31900001 6564380
0.045613397 0.013654523 0.31900001 6699056
0.046365913 0.013654523 0.31900001 6566695
0.047118429 0.013654523 0.31900001 6696482
0.045613397 0.014407039 0.31900001 6633517
0.0410983 0.026447285 0.31900001 6436390
0.040345788 0.027952317 0.31900001 6504495
0.0410983 0.027576059 0.31900001 6369827
0.0410983 0.028704831 0.31900001 6435361
0.11258727 0.028704831 0.31900001 12947612
0.041474558 0.029457347 0.31900001 6566175
0.11258727 0.029457347 0.31900001 12947874
0.041474558 0.030209862 0.31900001 6631711
0.042603336 0.03096238 0.31900001 6893595
0.11183476 0.03096238 0.31900001 12753589
0.11183476 0.031714894 0.31900001 13612500
0.11258727 0.031714894 0.31900001 13080494
0.11258727 0.03246741 0.31900001 13081007
0.072554424 -0.0014001622 0.32000002 6890792
0.073686741 -0.0014001622 0.32000002 7088428
0.074441619 -0.0014001622 0.32000002 6957355
0.075573929 -0.0014001622 0.32000002 7418419
0.071422122 -0.00064528774 0.32000002 6693670
0.072554424 -0.00064528774 0.32000002 6824743
0.073686741 -0.00064528774 0.32000002 7153451
0.075573929 -0.00064528774 0.32000002 7417647
0.076706246 -0.00064528774 0.32000002 7748668
0.078215994 -0.00064528774 0.32000002 8209735
0.069660746 0.00061283639 0.32000002 6759716
0.070667244 0.00048702396 0.32000002 6891046
0.071422122 0.00010958673 0.32000002 6825254
0.078719236 0.00036121157 0.32000002 8339776
0.079725735 0.00048702396 0.32000002 8537932
0.080480613 0.00086446118 0.32000002 8932174
0.08161293 0.00086446118 0.32000002 9197146
0.082745232 0.00086446118 0.32000002 9262684
0.083500117 0.00086446118 0.32000002 9328479
0.084254988 0.00086446118 0.32000002 9394272
0.067647748 0.0016193357 0.32000002 6825506
0.068402626 0.0016193357 0.32000002 6891299
0.069157496 0.0016193357 0.32000002 7087908
0.083500117 0.0016193357 0.32000002 9128524
0.065383121 0.0023742102 0.32000002 6562847
0.066515431 0.0023742102 0.32000002 6825506
0.057456944 0.003883959 0.32000002 6104351
0.058589254 0.0035065217 0.32000002 6104352
0.059344128 0.0035065217 0.32000002 6170145
0.060476437 0.0031290846 0.32000002 6235425
0.061608754 0.0031290846 0.32000002 6432804
0.062363625 0.0031290846 0.32000002 6366751
0.063495934 0.0031290846 0.32000002 6497567
0.064628251 0.0031290846 0.32000002 6628640
0.056324627 0.0046388339 0.32000002 6105376
0.057456944 0.0046388339 0.32000002 6104092
0.055569757 0.0053937081 0.32000002 6104861
0.056324627 0.0053937081 0.32000002 6039068
0.053305134 0.006903457 0.32000002 6171685
0.054437444 0.0065260194 0.32000002 6105121
0.055569757 0.0061485823 0.32000002 6169370
0.052550256 0.0076583312 0.32000002 6237478
0.053305134 0.0076583312 0.32000002 6038816
0.051795382 0.0084132068 0.32000002 6237732
0.050285634 0.0099229552 0.32000002 6433826
0.051040512 0.009168081 0.32000002 6368546
0.048775885 0.010677829 0.32000002 6500134
0.049530759 0.010677829 0.32000002 6565666
0.047266137 0.011432705 0.32000002 6829099
0.04839845 0.011432705 0.32000002 6434080
0.045756385 0.012942453 0.32000002 6634546
0.046511263 0.012565016 0.32000002 6567466
0.047266137 0.012187579 0.32000002 6763304
0.04839845 0.012187579 0.32000002 6368287
0.072402544 -0.0021617713 0.32100001 6694953
0.073538393 -0.0021617713 0.32100001 7089199
0.074674249 -0.0021617713 0.32100001 7089970
0.075431474 -0.0021617713 0.32100001 7155763
0.076188713 -0.0021617713 0.32100001 8010820
0.070509464 -0.0014045377 0.32100001 6629161
0.071645312 -0.0014045377 0.32100001 6825256
0.069373608 -0.00064730423 0.32100001 6694953
0.070509464 -0.00064730423 0.32100001 6628647
0.079596266 -0.00064730423 0.32100001 8869470
0.080732107 -0.00064730423 0.32100001 9133415
0.067859143 0.0008671626 0.32100001 6825765
0.068616383 0.00048854586 0.32100001 6825510
0.069373608 0.00010992918 0.32100001 6759974
0.080732107 0.00010992918 0.32100001 9262171
0.081489347 0.00010992918 0.32100001 9396071
0.083761051 0.00010992918 0.32100001 9791345
0.084518276 0.00010992918 0.32100001 9265003
0.05650064 0.0016243961 0.32100001 6436656
0.057257876 0.0016243961 0.32100001 6566958
0.05877234 0.0016243961 0.32100001 6303273
0.059529576 0.0016243961 0.32100001 6237480
0.060286809 0.0016243961 0.32100001 6302503
0.065587446 0.0016243961 0.32100001 6760226
0.066344678 0.0016243961 0.32100001 6891299
0.067101911 0.0016243961 0.32100001 6891299
0.05650064 0.0023816295 0.32100001 6238507
0.057257876 0.0023816295 0.32100001 6369066
0.058393724 0.0023816295 0.32100001 6237223
0.059529576 0.0023816295 0.32100001 6236710
0.060286809 0.0023816295 0.32100001 6235427
0.061422661 0.0023816295 0.32100001 6301218
0.062558509 0.0023816295 0.32100001 6235425
0.063315742 0.0023816295 0.32100001 6366497
0.06445159 0.0023816295 0.32100001 6432031
0.054986175 0.0038960963 0.32100001 6369064
0.055743411 0.0035174796 0.32100001 6303528
0.05650064 0.0035174796 0.32100001 6237735
0.057257876 0.0031388628 0.32100001 6237480
0.058015112 0.0031388628 0.32100001 6236710
0.054607555 0.00465333 0.32100001 6303271
0.055743411 0.00465333 0.32100001 6236962
0.054607555 0.0054105632 0.32100001 6368551
0.051957238 0.0069250301 0.32100001 6237993
0.052714474 0.0065464135 0.32100001 6303273
0.053471711 0.0061677964 0.32100001 6237478
0.054228939 0.0061677964 0.32100001 6237478
0.051578626 0.0076822634 0.32100001 6369064
0.050442774 0.0084394971 0.32100001 6369318
0.05120001 0.0084394971 0.32100001 6369318
0.048549689 0.0099539636 0.32100001 6501160
0.049685538 0.0095753465 0.32100001 6500133
0.050442774 0.0091967303 0.32100001 6434339
0.046656609 0.010711198 0.32100001 6765621
0.047413845 0.010711198 0.32100001 6764076
0.048171073 0.010711198 0.32100001 6632490
0.046656609 0.011468431 0.32100001 6502447
0.070349328 -0.0021685057 0.32200003 6564910
0.072628103 -0.0029280982 0.32200003 6761259
0.07338769 -0.0029280982 0.32200003 6958125
0.06883014 -0.0014089133 0.32200003 6828082
0.069589734 -0.0014089133 0.32200003 6695212
0.079464436 -0.0014089133 0.32200003 8803680
0.080983616 -0.0014089133 0.32200003 9529205
0.06883014 -0.00064932083 0.32200003 6827052
0.055917069 0.00011027165 0.32200003 7096132
0.05667666 0.00086986407 0.32200003 6634550
0.057436254 0.00086986407 0.32200003 6633267
0.058575641 0.00086986407 0.32200003 6632751
0.059715029 0.00086986407 0.32200003 6369577
0.060474619 0.00086986407 0.32200003 6368294
0.061234213 0.00086986407 0.32200003 6433574
0.062753394 0.00086986407 0.32200003 6301218
0.063512988 0.00086986407 0.32200003 6301220
0.065032177 0.00086986407 0.32200003 6695462
0.066551365 0.00086986407 0.32200003 6891812
0.067310952 0.00086986407 0.32200003 6957605
0.068070546 0.00011027165 0.32200003 6760744
0.054397881 0.0016294565 0.32200003 6701372
0.055537272 0.0016294565 0.32200003 6765878
0.058195848 0.0016294565 0.32200003 6501165
0.06161401 0.0016294565 0.32200003 6236197
0.062753394 0.0016294565 0.32200003 6301218
0.063512988 0.0016294565 0.32200003 6432292
0.064272583 0.0016294565 0.32200003 6432292
0.065032177 0.0016294565 0.32200003 6629156
0.053638291 0.0023890492 0.32200003 6765369
0.054397881 0.0023890492 0.32200003 6699830
0.055537272 0.0023890492 0.32200003 6436143
0.052498899 0.0039082337 0.32200003 6436144
0.053638291 0.0035284376 0.32200003 6501679
0.054397881 0.0035284376 0.32200003 6435628
0.055157475 0.0031486414 0.32200003 6501679
0.052498899 0.0046678265 0.32200003 6238507
0.053638291 0.0046678265 0.32200003 6238507
0.051359516 0.0054274187 0.32200003 6370865
0.052498899 0.0054274187 0.32200003 6304043
0.053638291 0.0054274187 0.32200003 6303786
0.050599918 0.0069466038 0.32200003 6369066
0.051359516 0.0065668076 0.32200003 6369322
0.052119102 0.006187011 0.32200003 6303786
0.04946053 0.007706196 0.32200003 6303530
0.050599918 0.007706196 0.32200003 6369064
0.04946053 0.0084657893 0.32200003 6368809
0.046422161 0.0099849738 0.32200003 6833216
0.047561552 0.0096051777 0.32200003 6830640
0.048321143 0.0092253815 0.32200003 6633263
0.049080737 0.0092253815 0.32200003 6303784
0.068493344 -0.0021819747 0.324 6896187
0.069424868 -0.0021752401 0.32300001 6828597
0.063907474 -0.0014176641 0.324 7027257
0.064671792 -0.0014176641 0.324 6764085
0.065436095 -0.0014176641 0.324 7092537
0.067729026 -0.0014176641 0.324 7093564
0.068281941 -0.0014132888 0.32300001 6829878
0.081997074 -0.0014132888 0.32300001 10057609
0.082759023 -0.0014132888 0.32300001 10257043
0.060662426 -0.00065133732 0.32300001 7093302
0.061424378 -0.00065133732 0.32300001 6961716
0.062378857 -0.00065335381 0.324 6632751
0.063525319 -0.00065335381 0.324 6631727
0.064671792 -0.00065335381 0.324 6763056
0.065436095 -0.00065335381 0.324 6894642
0.066479221 -0.0006523456 0.32350001 7157817
0.067519993 -0.00065133732 0.32300001 7092537
0.068281941 -0.00065133732 0.32300001 6828595
0.057614625 0.00011061411 0.32300001 7028541
0.058376577 0.00011061411 0.32300001 6962230
0.0595195 0.00011061411 0.32300001 6764850
0.060662426 0.00011061411 0.32300001 6829615
0.061424378 0.00011061411 0.32300001 6763824
0.062440317 0.00036459789 0.32300001 6301988
0.063710235 0.00011061411 0.32300001 6564394
0.064472191 0.00049158977 0.32300001 6564393
0.065742105 0.00036459789 0.32300001 6827049
0.066758044 0.00011061411 0.32300001 6958123
0.067519993 0.00011061411 0.32300001 6892330
0.052280962 0.0023964683 0.32300001 6701634
0.053042915 0.0023964683 0.32300001 6896955
0.051519014 0.0039203712 0.32300001 6700091
0.052280962 0.0031584196 0.32300001 6896957
0.053042915 0.0031584196 0.32300001 6830644
0.049385581 0.004696819 0.324 6904663
0.050453477 0.0046895705 0.32350001 6700605
0.051519014 0.0046823225 0.32300001 6502197
0.049995106 0.0054442738 0.32300001 6832447
0.050757062 0.0054442738 0.32300001 6436658
0.047602192 0.0067349798 0.324 8481384
0.048471205 0.0069681765 0.32300001 7162957
0.049614131 0.0065872008 0.32300001 6633267
0.050757062 0.0062062251 0.32300001 6501165
0.047400951 0.0077420939 0.32350001 7360075
0.048471205 0.0077301278 0.32300001 6897468
0.046947304 0.0084920796 0.32300001 7425611
0.047709256 0.0084920796 0.32300001 6963515
0.046947304 0.0092540309 0.32300001 7161410
-0.053410925 -0.075183667 0.33600003 8334377
-0.052618306 -0.075183667 0.33600003 8334377
-0.051825691 -0.075183667 0.33600003 6034450
-0.051184952 -0.075407423 0.33700001 4528920
-0.054526184 -0.075631186 0.33800003 8202791
-0.052532844 -0.074833848 0.33800003 8006695
-0.056452926 -0.076078705 0.34 7873826
-0.050838552 -0.076078705 0.34 4923678
-0.055487197 -0.075854942 0.33900002 8136998
-0.05484882 -0.07527665 0.34 8202534
-0.053887807 -0.075055249 0.33900002 8399913
-0.051640604 -0.07527665 0.34 4527375
-0.05324471 -0.074474595 0.34 8399913
-0.055814553 -0.075498052 0.34100002 8136741
-0.054205731 -0.074693643 0.34100002 8399913
-0.052596904 -0.074693643 0.34100002 8072745
-0.047770426 -0.052170075 0.34100002 8465184
-0.046563804 -0.052170075 0.34100002 8399391
-0.053401314 -0.051365659 0.34100002 7612190
-0.052596904 -0.051365659 0.34100002 7677983
-0.051792488 -0.051365659 0.34100002 7941155
-0.050585873 -0.051365659 0.34100002 8138275
-0.049379248 -0.051365659 0.34100002 8268834
-0.048574839 -0.051365659 0.34100002 8268834
-0.047770426 -0.051365659 0.34100002 8334370
-0.046563804 -0.051365659 0.34100002 8399391
-0.045357186 -0.051365659 0.34100002 8530977
-0.04455277 -0.051365659 0.34100002 8464671
-0.04374836 -0.051365659 0.34100002 8596257
-0.055412348 -0.050561249 0.34100002 7415066
-0.054205731 -0.050561249 0.34100002 7546397
-0.053401314 -0.050561249 0.34100002 7546397
-0.052596904 -0.050561249 0.34100002 7677983
-0.051792488 -0.050561249 0.34100002 7875362
-0.050585873 -0.050561249 0.34100002 8072228
-0.049379248 -0.050561249 0.34100002 8202787
-0.048574839 -0.050561249 0.34100002 8202787
-0.047770426 -0.050561249 0.34100002 8268577
-0.046563804 -0.050561249 0.34100002 8268577
-0.045357186 -0.050561249 0.34100002 8465186
-0.04455277 -0.050561249 0.34100002 8399393
-0.04374836 -0.050561249 0.34100002 8530464
-0.042541742 -0.050561249 0.34100002 8727586
-0.041335121 -0.050561249 0.34100002 9319464
-0.055412348 -0.049756836 0.34100002 7414810
-0.054205731 -0.049756836 0.34100002 7480604
-0.053401314 -0.049756836 0.34100002 7546397
-0.052596904 -0.049756836 0.34100002 7677983
-0.051792488 -0.049756836 0.34100002 7809569
-0.050585873 -0.049756836 0.34100002 8006435
-0.049379248 -0.049756836 0.34100002 8071971
-0.048574839 -0.049756836 0.34100002 8071971
-0.047770426 -0.049756836 0.34100002 8136994
-0.046563804 -0.049756836 0.34100002 8202784
-0.045357186 -0.049756836 0.34100002 8399393
-0.04455277 -0.049756836 0.34100002 8399393
-0.04374836 -0.049756836 0.34100002 8530464
-0.042541742 -0.049756836 0.34100002 8661793
-0.041335121 -0.049756836 0.34100002 9319464
-0.055010144 -0.048550215 0.34100002 7414812
-0.054205731 -0.048550215 0.34100002 7414812
-0.053401314 -0.048550215 0.34100002 7480606
-0.052596904 -0.048550215 0.34100002 7612193
-0.051792488 -0.048550215 0.34100002 7612193
-0.050585873 -0.048550215 0.34100002 7874594
-0.049379248 -0.048550215 0.34100002 8071972
-0.048574839 -0.048550215 0.34100002 8006179
-0.047770426 -0.048550215 0.34100002 8071201
-0.046563804 -0.048550215 0.34100002 8071201
-0.045357186 -0.048550215 0.34100002 8202787
-0.04455277 -0.048550215 0.34100002 8333603
-0.04374836 -0.048550215 0.34100002 8399137
-0.042541742 -0.048550215 0.34100002 8595744
-0.041335121 -0.048550215 0.34100002 9515819
-0.040530704 -0.048550215 0.34100002 9450026
-0.054205731 -0.047343597 0.34100002 7415326
-0.053401314 -0.047343597 0.34100002 7481121
-0.052596904 -0.047343597 0.34100002 7612707
-0.051792488 -0.047343597 0.34100002 7612707
-0.050585873 -0.047343597 0.34100002 7743778
-0.049379248 -0.047343597 0.34100002 7875364
-0.048574839 -0.047343597 0.34100002 7809571
-0.047770426 -0.047343597 0.34100002 7808801
-0.046563804 -0.047343597 0.34100002 8136994
-0.045357186 -0.047343597 0.34100002 8202787
-0.04455277 -0.047343597 0.34100002 8136994
-0.04374836 -0.047343597 0.34100002 8333346
-0.042541742 -0.047343597 0.34100002 8529954
-0.041335121 -0.047343597 0.34100002 9252390
-0.050585873 -0.04653918 0.34100002 7679013
-0.049379248 -0.04653918 0.34100002 7810084
-0.048574839 -0.04653918 0.34100002 7744291
-0.047770426 -0.04653918 0.34100002 7808801
-0.046563804 -0.04653918 0.34100002 8071203
-0.045357186 -0.04653918 0.34100002 8202789
-0.04455277 -0.04653918 0.34100002 8136994
-0.04374836 -0.04653918 0.34100002 8333346
-0.049379248 -0.045734771 0.34100002 7744293
-0.048574839 -0.045734771 0.34100002 7744293
-0.047770426 -0.045734771 0.34100002 7677985
-0.046563804 -0.045734771 0.34100002 8071203
-0.045357186 -0.045734771 0.34100002 8136996
-0.04455277 -0.045734771 0.34100002 8136737
-0.04374836 -0.045734771 0.34100002 8332833
-0.048574839 -0.044930357 0.34100002 7611940
-0.047770426 -0.044528149 0.34100002 7742753
-0.046563804 -0.044528149 0.34100002 7808031
-0.045357186 -0.044528149 0.34100002 8005410
-0.04455277 -0.044930357 0.34100002 8005153
-0.057591777 -0.076526225 0.34200001 7610654
-0.050330829 -0.076526225 0.34200001 5124907
-0.056785006 -0.075719453 0.34200001 7939362
-0.051137604 -0.075719453 0.34200001 4987926
-0.055171464 -0.074912682 0.34200001 8268327
-0.054364689 -0.074105911 0.34200001 8399913
-0.053557914 -0.074105911 0.34200001 8663085
-0.052751146 -0.074105911 0.34200001 8466733
-0.051944371 -0.074912682 0.34200001 8270124
-0.058398549 -0.053129833 0.34200001 7546651
-0.057591777 -0.053533219 0.34200001 7744030
-0.056785006 -0.053533219 0.34200001 7810335
-0.055574849 -0.053533219 0.34200001 7744543
-0.054364689 -0.053533219 0.34200001 7678750
-0.053557914 -0.053533219 0.34200001 7875359
-0.052751146 -0.053533219 0.34200001 7940126
-0.051540986 -0.053533223 0.34200001 8269347
-0.050330829 -0.053533219 0.34200001 8466725
-0.049524054 -0.053533219 0.34200001 8466212
-0.048717286 -0.053533219 0.34200001 8334626
-0.047507122 -0.053533223 0.34200001 8399647
-0.046296969 -0.053533219 0.34200001 8399133
-0.045490194 -0.053533219 0.34200001 8464925
-0.044683423 -0.053533219 0.34200001 8530203
-0.043473266 -0.053533223 0.34200001 8924703
-0.042263109 -0.053533219 0.34200001 8991010
-0.041456338 -0.053533219 0.34200001 9122852
-0.040649563 -0.053533219 0.34200001 9320231
-0.039439406 -0.053129833 0.34200001 9715241
-0.058398549 -0.052323066 0.34200001 7415065
-0.057591777 -0.052323066 0.34200001 7480858
-0.056785006 -0.052323066 0.34200001 7546651
-0.055574849 -0.052323066 0.34200001 7546651
-0.054364689 -0.052323066 0.34200001 7546651
-0.053557914 -0.052323066 0.34200001 7546651
-0.052751146 -0.052323066 0.34200001 7678237
-0.051540986 -0.052323066 0.34200001 8007202
-0.050330829 -0.052323066 0.34200001 8269604
-0.049524054 -0.052323066 0.34200001 8334627
-0.048717286 -0.052323066 0.34200001 8334627
-0.045490194 -0.052323066 0.34200001 8531231
-0.044683423 -0.052323066 0.34200001 8464925
-0.043473266 -0.052323066 0.34200001 8858913
-0.042263109 -0.052323066 0.34200001 9056292
-0.041456338 -0.052323066 0.34200001 9319462
-0.040649563 -0.052323066 0.34200001 9451048
-0.039439406 -0.052323066 0.34200001 9715242
-0.038229249 -0.052323066 0.34200001 10044205
-0.058398549 -0.051516291 0.34200001 7349272
-0.057591777 -0.051516291 0.34200001 7415065
-0.056785006 -0.051516291 0.34200001 7480858
-0.055574849 -0.051516291 0.34200001 7480603
-0.054364689 -0.051516291 0.34200001 7546397
-0.04306988 -0.051516291 0.34200001 8662050
-0.042263109 -0.051516291 0.34200001 8925222
-0.041456338 -0.051516291 0.34200001 9188648
-0.040649563 -0.051516291 0.34200001 9320234
-0.039439406 -0.051516291 0.34200001 9846573
-0.038229249 -0.051516291 0.34200001 10044207
-0.037422474 -0.051516291 0.34200001 10044207
-0.058398549 -0.050709523 0.34200001 7217686
-0.057591777 -0.050709523 0.34200001 7349272
-0.056785006 -0.050709523 0.34200001 7415065
-0.040649563 -0.050709523 0.34200001 9319464
-0.039439406 -0.050709523 0.34200001 9912621
-0.038229249 -0.050709523 0.34200001 10044207
-0.037422474 -0.050709523 0.34200001 9978414
-0.036615703 -0.050709523 0.34200001 9912621
-0.058398549 -0.049902748 0.34200001 7151639
-0.057591777 -0.049499363 0.34200001 7217690
-0.056785006 -0.049499363 0.34200001 7481116
-0.055978231 -0.049095973 0.34200001 7283738
-0.040649563 -0.049902748 0.34200001 9319464
-0.039439406 -0.049499363 0.34200001 9912364
-0.038229249 -0.049499363 0.34200001 10176049
-0.037422474 -0.049499363 0.34200001 10307635
-0.036615703 -0.049499363 0.34200001 10176563
-0.057591777 -0.048289206 0.34200001 7021340
-0.056785006 -0.048289206 0.34200001 7415326
-0.055978231 -0.048289206 0.34200001 7152152
-0.039439406 -0.048289206 0.34200001 9977389
-0.038229249 -0.048289206 0.34200001 10177076
-0.037422474 -0.048289206 0.34200001 10571834
-0.036615703 -0.048289206 0.34200001 10506298
-0.056785006 -0.047482431 0.34200001 7349533
-0.055574849 -0.047482431 0.34200001 7217947
-0.040649563 -0.047482431 0.34200001 9449769
-0.039439406 -0.047482431 0.34200001 10043438
-0.038229249 -0.047482431 0.34200001 10440505
-0.037422474 -0.047482431 0.34200001 10506298
-0.055574849 -0.046675656 0.34200001 7350051
-0.054364689 -0.046675656 0.34200001 7415844
-0.053557914 -0.046675656 0.34200001 7481639
-0.052751146 -0.046675656 0.34200001 7613223
-0.051944371 -0.046675656 0.34200001 7679016
-0.04306988 -0.046675656 0.34200001 8267553
-0.042263109 -0.046675656 0.34200001 8792098
-0.041456338 -0.046675656 0.34200001 9252644
-0.040649563 -0.046675656 0.34200001 9450023
-0.039439406 -0.046675656 0.34200001 10175024
-0.038229249 -0.046675656 0.34200001 10441275
-0.055171464 -0.045868888 0.34200001 7416103
-0.054364689 -0.045465499 0.34200001 7218724
-0.053557914 -0.045465499 0.34200001 7415332
-0.052751146 -0.045465499 0.34200001 7481380
-0.051540986 -0.045465499 0.34200001 7547173
-0.050330829 -0.045465499 0.34200001 7612452
-0.049524054 -0.045062114 0.34200001 7611940
-0.043338805 -0.045331042 0.34200001 8267040
-0.042263109 -0.045465499 0.34200001 8726304
-0.041456338 -0.045465499 0.34200001 9186851
-0.040649563 -0.045465499 0.34200001 9450023
-0.039439406 -0.045465499 0.34200001 10175281
-0.038229249 -0.045868888 0.34200001 10572861
-0.052751146 -0.044255342 0.34200001 7217436
-0.051540986 -0.044255342 0.34200001 7348509
-0.050330829 -0.044255342 0.34200001 7545631
-0.049524054 -0.044255342 0.34200001 7611424
-0.048717286 -0.044255342 0.34200001 7611424
-0.044683423 -0.044255342 0.34200001 8135969
-0.043473266 -0.044255342 0.34200001 8201505
-0.042263109 -0.044255342 0.34200001 8726303
-0.041456338 -0.044255342 0.34200001 9252899
-0.040649563 -0.044255342 0.34200001 9581864
-0.039842792 -0.044255342 0.34200001 10305839
-0.051540986 -0.043448571 0.34200001 7085591
-0.050330829 -0.043448571 0.34200001 7347480
-0.049524054 -0.043448571 0.34200001 7479066
-0.048717286 -0.043448571 0.34200001 7610652
-0.047507122 -0.043448571 0.34200001 7741981
-0.046296969 -0.043448571 0.34200001 7939360
-0.045490194 -0.043448571 0.34200001 8005153
-0.044683423 -0.043448571 0.34200001 8070174
-0.043473266 -0.043448571 0.34200001 8333088
-0.042263109 -0.043448571 0.34200001 8858143
-0.041456338 -0.043448571 0.34200001 9647655
-0.040649563 -0.043448571 0.34200001 10042413
-0.051137604 -0.0426418 0.34200001 7281687
-0.050330829 -0.0426418 0.34200001 7347480
-0.049524054 -0.0426418 0.34200001 7413273
-0.048717286 -0.0426418 0.34200001 7479066
-0.047507122 -0.0426418 0.34200001 7741981
-0.046296969 -0.0426418 0.34200001 7939360
-0.045490194 -0.0426418 0.34200001 7939360
-0.044683423 -0.0426418 0.34200001 8070428
-0.043473266 -0.0426418 0.34200001 8333344
-0.042263109 -0.0426418 0.34200001 8923936
-0.041456338 -0.0426418 0.34200001 9582886
-0.049524054 -0.041835029 0.34200001 7347480
-0.048717286 -0.041431643 0.34200001 7413272
-0.047507122 -0.041431643 0.34200001 7676187
-0.046296969 -0.041431643 0.34200001 7939358
-0.045490194 -0.041431643 0.34200001 7939358
-0.044683423 -0.041431643 0.34200001 8202013
-0.043473266 -0.041835029 0.34200001 8464927
-0.056546479 -0.075131729 0.34300002 8070948
-0.05128713 -0.075131729 0.34300002 5839892
-0.053714518 -0.073513471 0.34300002 8860719
-0.052905392 -0.073513471 0.34300002 8729903
-0.058569305 -0.055712581 0.34300002 8400670
-0.057760179 -0.055712581 0.34300002 8400670
-0.056951046 -0.055712581 0.34300002 8401440
-0.060187571 -0.054498885 0.34300002 7809564
-0.059378438 -0.054498885 0.34300002 7875101
-0.058569305 -0.054498885 0.34300002 7809309
-0.057760179 -0.054903451 0.34300002 8138016
-0.056546479 -0.054903451 0.34300002 8139296
-0.055332784 -0.054903451 0.34300002 8073506
-0.054523651 -0.054903451 0.34300002 7876127
-0.053714518 -0.054903451 0.34300002 8072223
-0.052500825 -0.054903451 0.34300002 8137246
-0.05128713 -0.054903451 0.34300002 8663590
-0.050477996 -0.054903451 0.34300002 8729383
-0.049668863 -0.054903451 0.34300002 8663590
-0.048455171 -0.054903451 0.34300002 8466210
-0.047241472 -0.054903451 0.34300002 8399645
-0.046432342 -0.054903451 0.34300002 8465438
-0.045623209 -0.054903451 0.34300002 8464925
-0.044409513 -0.054903451 0.34300002 8596508
-0.043195818 -0.054903451 0.34300002 8859679
-0.042386685 -0.054903451 0.34300002 8991519
-0.041577555 -0.054903451 0.34300002 9057312
-0.040768422 -0.054903451 0.34300002 9320484
-0.03955473 -0.054498885 0.34300002 9716267
-0.03834103 -0.054498885 0.34300002 9519144
-0.037531897 -0.054498885 0.34300002 9452581
-0.036722768 -0.054498885 0.34300002 9516321
-0.035643928 -0.054364029 0.34300002 9581089
-0.060592137 -0.053285185 0.34300002 7546649
-0.059378438 -0.053285185 0.34300002 7546649
-0.03834103 -0.053285185 0.34300002 9912619
-0.037531897 -0.053285185 0.34300002 9912619
-0.036722768 -0.053285185 0.34300002 9714470
-0.035509072 -0.053285185 0.34300002 9581089
-0.034295376 -0.053285185 0.34300002 9975593
-0.060592137 -0.05247606 0.34300002 7349272
-0.059378438 -0.05247606 0.34300002 7217686
-0.037531897 -0.05247606 0.34300002 9978412
-0.036722768 -0.05247606 0.34300002 9781033
-0.035509072 -0.05247606 0.34300002 9516066
-0.034295376 -0.05247606 0.34300002 10041388
-0.060592137 -0.051666927 0.34300002 7283735
-0.059378438 -0.051666927 0.34300002 7151893
-0.036722768 -0.051666927 0.34300002 9846826
-0.035509072 -0.051666927 0.34300002 9713445
-0.034295376 -0.051666927 0.34300002 10041388
-0.060187571 -0.050453231 0.34300002 7021847
-0.059378438 -0.050453231 0.34300002 7086613
-0.035509072 -0.050453231 0.34300002 10043440
-0.034295376 -0.050857797 0.34300002 10108208
-0.060187571 -0.049239531 0.34300002 7087386
-0.059378438 -0.049239531 0.34300002 6955545
-0.058569305 -0.049239531 0.34300002 7086361
-0.035509072 -0.049239531 0.34300002 10440248
-0.059378438 -0.048430406 0.34300002 6890009
-0.058569305 -0.048430406 0.34300002 6889754
-0.035509072 -0.048430406 0.34300002 10637884
-0.058569305 -0.047621273 0.34300002 6889754
