# .PCD v0.7 - Point Cloud Data file format
VERSION 0.7
FIELDS x y z rgb
SIZE 4 4 4 4
TYPE F F F U
COUNT 1 1 1 1
WIDTH 1110
HEIGHT 1
VIEWPOINT 0 0 0 1 0 0 0
POINTS 1110
DATA ascii
-0.061192259 0.088400021 0.25 12237498
-0.060541082 0.088400021 0.25 12237498
-0.059889905 0.088400021 0.25 12303291
-0.059238728 0.088400021 0.25 12369084
-0.058587551 0.088400021 0.25 12434877
-0.057936374 0.088400021 0.25 12434877
-0.057285193 0.088400021 0.25 12434877
-0.056634016 0.088400021 0.25 12369854
-0.055982839 0.088400021 0.25 12304061
-0.055331662 0.088400021 0.25 12369854
-0.054680485 0.088400021 0.25 12369854
-0.054029308 0.088400021 0.25 12501440
-0.053378131 0.088400021 0.25 12369854
-0.052516051 0.088046424 0.24900001 12304061
-0.051867474 0.088046424 0.24900001 12304061
-0.051218901 0.088046424 0.24900001 12369854
-0.050570328 0.088046424 0.24900001 12501440
-0.049921755 0.088046424 0.24900001 12501440
-0.049273185 0.088046424 0.24900001 12369854
-0.048624612 0.088046424 0.24900001 12632256
-0.047976039 0.088046424 0.24900001 12698049
-0.047327466 0.088046424 0.24900001 12698049
-0.046678893 0.088046424 0.24900001 12698049
-0.046030317 0.088046424 0.24900001 12698049
-0.045381747 0.088046424 0.24900001 12698049
-0.044733174 0.088046424 0.24900001 12698049
-0.044084601 0.088046424 0.24900001 12698049
-0.043436028 0.088046424 0.24900001 12763842
-0.042615619 0.087692827 0.24800001 12763842
-0.041969653 0.087692827 0.24800001 12829635
-0.041323684 0.087692827 0.24800001 12829635
-0.040513691 0.087339222 0.24700001 12829635
-0.039870325 0.087339222 0.24700001 12698819
-0.039226964 0.087339222 0.24700001 12633026
-0.038583599 0.087339222 0.24700001 12698819
-0.037940238 0.087339222 0.24700001 12764612
-0.037296876 0.087339222 0.24700001 12764612
-0.036653511 0.087339222 0.24700001 12764612
-0.03601015 0.087339222 0.24700001 12698819
-0.035366781 0.087339222 0.24700001 12698819
-0.03472342 0.087339222 0.24700001 12764612
-0.034080055 0.087339222 0.24700001 12961991
-0.033301324 0.086985625 0.24600001 12961991
-0.032660563 0.086985625 0.24600001 13093577
-0.032019805 0.086985625 0.24600001 13028554
-0.031379048 0.086985625 0.24600001 13291726
-0.030738287 0.086985625 0.24600001 13094862
-0.030097529 0.086985625 0.24600001 13226450
-0.02945677 0.086985625 0.24600001 13358036
-0.028816013 0.086985625 0.24600001 13423829
-0.028175253 0.086985625 0.24600001 13226450
-0.027534494 0.086985625 0.24600001 13160144
-0.026784413 0.086632021 0.245 13094351
-0.026146259 0.086632021 0.245 13160142
-0.025508102 0.086632021 0.245 13094349
-0.024869949 0.086632021 0.245 13027786
-0.024231795 0.086632021 0.245 13225165
-0.023593642 0.086632021 0.245 13488337
-0.022955487 0.086632021 0.245 13554132
-0.022317333 0.086632021 0.245 13554132
-0.02167918 0.086632021 0.245 13554132
-0.021041026 0.086632021 0.245 13488339
-0.020402873 0.086632021 0.245 13290960
-0.019684047 0.086278424 0.24400002 13224395
-0.019048497 0.086278424 0.24400002 13290188
-0.01841295 0.086278424 0.24400002 13553360
-0.0177774 0.086278424 0.24400002 13553360
-0.017141849 0.086278424 0.24400002 13619153
-0.016506301 0.086278424 0.24400002 13421774
-0.015870752 0.086278424 0.24400002 13290188
-0.015235202 0.086278424 0.24400002 13290188
-0.014599653 0.086278424 0.24400002 13553360
-0.013964104 0.086278424 0.24400002 13684946
-0.013273929 0.085924827 0.24300002 13684946
-0.012640985 0.085924827 0.24300002 13553360
-0.01200804 0.085924827 0.24300002 13422544
-0.011375096 0.085924827 0.24300002 13619925
-0.010742151 0.085924827 0.24300002 13554132
-0.010109207 0.085924827 0.24300002 13685718
-0.0094762621 0.085924827 0.24300002 13751511
-0.0088433176 0.085924827 0.24300002 13685718
-0.0082103731 0.085924827 0.24300002 13619925
-0.0075774286 0.085924827 0.24300002 13290960
-0.0069159055 0.085571222 0.24200001 13619155
-0.0062855659 0.085571222 0.24200001 13619155
-0.0056552258 0.085571222 0.24200001 13684948
-0.0050248862 0.085571222 0.24200001 13684946
-0.0043945462 0.085571222 0.24200001 13421774
-0.0037642068 0.085571222 0.24200001 13355981
-0.0031338669 0.085571222 0.24200001 13553360
-0.0025035271 0.085571222 0.24200001 13816532
-0.0018731873 0.085571222 0.24200001 13882327
-0.0012428475 0.085571222 0.24200001 13883097
-0.00060997665 0.085217625 0.24100001 13619925
1.7758497e-05 0.085217625 0.24100001 13554132
0.00064549362 0.085217625 0.24100001 13290958
0.0012732288 0.085217625 0.24100001 13421774
0.0019009637 0.085217625 0.24100001 13750739
0.0025286989 0.085217625 0.24100001 13882325
0.003156434 0.085217625 0.24100001 13685718
0.0037841692 0.085217625 0.24100001 13685718
0.0044119041 0.085217625 0.24100001 13619925
0.0050396393 0.085217625 0.24100001 13554132
0.0056673745 0.085217625 0.24100001 13554132
0.0062951096 0.085217625 0.24100001 13355983
0.0069228448 0.085217625 0.24100001 13422546
0.00755058 0.085217625 0.24100001 13619923
0.0081783142 0.085217625 0.24100001 13751509
0.0088060498 0.085217625 0.24100001 13619923
0.0094337845 0.085217625 0.24100001 13619923
0.01006152 0.085217625 0.24100001 13554130
0.010644902 0.08486402 0.24000001 13488337
0.011270032 0.08486402 0.24000001 13290958
0.011895162 0.08486402 0.24000001 13225165
0.012520293 0.08486402 0.24000001 13355981
0.013145423 0.08486402 0.24000001 13421774
0.013770553 0.08486402 0.24000001 13553360
0.014395684 0.08486402 0.24000001 13619923
0.015020815 0.08486402 0.24000001 13685716
0.015645944 0.08486402 0.24000001 13751509
0.016271075 0.08486402 0.24000001 13620693
0.016896205 0.08486402 0.24000001 13357521
0.01744833 0.084510423 0.23900001 13225165
0.018070856 0.084510423 0.23900001 13093579
0.01869338 0.084510423 0.23900001 13225165
0.019315906 0.084510423 0.23900001 13422544
0.019938434 0.084510423 0.23900001 13554130
0.020560959 0.084510423 0.23900001 13357521
0.021183483 0.084510423 0.23900001 13291728
0.021806009 0.084510423 0.23900001 13291728
0.022428537 0.084510423 0.23900001 13619923
0.023051061 0.084510423 0.23900001 13687001
0.023574533 0.084156819 0.23800001 13752794
0.024194455 0.084156819 0.23800001 13818587
0.024814377 0.084156819 0.23800001 13489109
0.025434297 0.084156819 0.23800001 13422544
0.026054218 0.084156819 0.23800001 13423314
0.026674138 0.084156819 0.23800001 13489107
0.02729406 0.084156819 0.23800001 13620695
0.02791398 0.084156819 0.23800001 13620695
0.028533902 0.084156819 0.23800001 13752281
0.029153822 0.084156819 0.23800001 13291730
0.029773744 0.084156819 0.23800001 13291730
0.030393666 0.084156819 0.23800001 13489109
0.030883279 0.083803229 0.23700002 13620695
0.031500593 0.083803229 0.23700002 13752281
0.032117911 0.083803229 0.23700002 13358036
0.032735225 0.083803229 0.23700002 13292243
0.033352543 0.083803229 0.23700002 13357523
0.033969861 0.083803229 0.23700002 13423316
0.034587178 0.083803229 0.23700002 13489109
0.035204493 0.083803229 0.23700002 13554902
0.035821807 0.083803229 0.23700002 13554902
0.036439124 0.083803229 0.23700002 13357521
0.037056439 0.083803229 0.23700002 13291728
0.037673756 0.083803229 0.23700002 13423314
0.038129505 0.083449624 0.23600002 13489107
0.038744219 0.083449624 0.23600002 13489107
0.039358933 0.083449624 0.23600002 13489107
0.039973643 0.083449624 0.23600002 13489107
0.040588353 0.083449624 0.23600002 13489107
0.041203067 0.083449624 0.23600002 13554130
0.041817777 0.083449624 0.23600002 13554130
0.042432487 0.083449624 0.23600002 13554128
0.043047197 0.083449624 0.23600002 13554898
0.043661911 0.083449624 0.23600002 13686999
0.044276625 0.083449624 0.23600002 13752792
0.044891335 0.083449624 0.23600002 13686999
0.045506045 0.083449624 0.23600002 13489107
0.046120759 0.083449624 0.23600002 13554900
0.046735469 0.083449624 0.23600002 13620693
0.047350179 0.083449624 0.23600002 13752279
0.04796489 0.083449624 0.23600002 13423314
0.048579603 0.083449624 0.23600002 13489107
0.049194317 0.083449624 0.23600002 13554900
0.049809027 0.083449624 0.23600002 13620693
0.050423738 0.083449624 0.23600002 13818072
0.051038451 0.083449624 0.23600002 13818072
0.051434293 0.083096027 0.23500001 13489107
0.0520464 0.083096027 0.23500001 13489107
0.052658506 0.083096027 0.23500001 13687001
0.053270612 0.083096027 0.23500001 13752794
0.053882718 0.083096027 0.23500001 13687001
0.054494828 0.083096027 0.23500001 13818587
0.055106934 0.083096027 0.23500001 13818587
0.05571904 0.083096027 0.23500001 13554902
0.056091439 0.082742423 0.23400001 13752281
0.056700941 0.082742423 0.23400001 13949660
0.057310443 0.082742423 0.23400001 13949919
0.057919946 0.082742423 0.23400001 13884126
0.058529448 0.082742423 0.23400001 13949919
0.05913895 0.082742423 0.23400001 14147552
0.059748448 0.082742423 0.23400001 14147298
0.060357954 0.082742423 0.23400001 13687001
0.060967453 0.082742423 0.23400001 13620695
0.061576959 0.082742423 0.23400001 13687001
0.062186465 0.082742423 0.23400001 13752794
0.062795959 0.082742423 0.23400001 14015966
0.063405469 0.082742423 0.23400001 14082275
0.063741393 0.082388826 0.23300001 14016997
0.064348295 0.082388826 0.23300001 14214378
0.06495519 0.082388826 0.23300001 14214378
0.065562092 0.082388826 0.23300001 13819105
0.066168986 0.082388826 0.23300001 13818587
0.066775888 0.082388826 0.23300001 13884380
0.067382783 0.082388826 0.23300001 14147298
0.067989677 0.082388826 0.23300001 14147298
0.068596579 0.082388826 0.23300001 14015712
0.069203474 0.082388826 0.23300001 13949919
0.069810376 0.082388826 0.23300001 14016482
0.07041727 0.082388826 0.23300001 13819103
0.071024165 0.082388826 0.23300001 13687517
0.071631067 0.082388826 0.23300001 13555931
0.072237961 0.082388826 0.23300001 13555931
0.072844863 0.082388826 0.23300001 13424599
0.073136508 0.082035221 0.23200001 13556185
0.07374081 0.082035221 0.23200001 13621978
0.074345097 0.082035221 0.23200001 13884896
0.074949391 0.082035221 0.23200001 14280171
0.075553678 0.082035221 0.23200001 14346994
0.07615798 0.082035221 0.23200001 14346994
0.076762274 0.082035221 0.23200001 14281201
0.077366561 0.082035221 0.23200001 14412787
0.077970855 0.082035221 0.23200001 14018029
0.078575142 0.082035221 0.23200001 14148845
0.078838147 0.081681624 0.23100001 14214640
0.079439834 0.081681624 0.23100001 14148847
0.080041528 0.081681624 0.23100001 14148593
0.080643207 0.081681624 0.23100001 14017261
0.081244901 0.081681624 0.23100001 14477296
0.081846595 0.081681624 0.23100001 14543089
0.082448274 0.081681624 0.23100001 14608882
0.083049968 0.081681624 0.23100001 14345710
0.083651647 0.081681624 0.23100001 14477550
0.084253341 0.081681624 0.23100001 14477296
0.084855027 0.081681624 0.23100001 14543089
0.085456714 0.081681624 0.23100001 14345972
0.085685857 0.081328019 0.23 14477558
0.086284935 0.081328019 0.23 14544121
0.086884022 0.081328019 0.23 14609144
0.087483108 0.081328019 0.23 14279919
0.088082194 0.081328019 0.23 14345712
0.088681273 0.081328019 0.23 14544375
0.089280359 0.081328019 0.23 14478843
0.089879438 0.081328019 0.23 14017007
0.090478525 0.081328019 0.23 14082800
0.091077611 0.081328019 0.23 14477810
0.09167669 0.081328019 0.23 14346224
0.092275776 0.081328019 0.23 14214638
0.092874855 0.081328019 0.23 14543605
0.093473941 0.081328019 0.23 14806777
0.09407302 0.081328019 0.23 14610427
0.094672106 0.081328019 0.23 14083570
0.095271185 0.081328019 0.23 14345197
0.095870271 0.081328019 0.23 14609396
0.096469358 0.081328019 0.23 14477810
0.097068436 0.081328019 0.23 14214640
0.097667523 0.081328019 0.23 14543605
0.097839363 0.080974422 0.22900002 14544375
0.098435842 0.080974422 0.22900002 14215410
0.09903232 0.080974422 0.22900002 14018031
0.099628799 0.080974422 0.22900002 14412019
0.10022528 0.080974422 0.22900002 14083054
0.10082176 0.080974422 0.22900002 14148583
0.10141824 0.080974422 0.22900002 14149099
0.10201471 0.080974422 0.22900002 14412271
0.10261119 0.080974422 0.22900002 14281201
0.10320767 0.080974422 0.22900002 14412017
0.10380415 0.080974422 0.22900002 14017513
-0.15489322 0.093325667 0.26200002 10528422
-0.1536222 0.092969455 0.26100001 10528422
-0.15294236 0.092969455 0.26100001 10331043
-0.15226252 0.092969455 0.26100001 10265248
-0.1515827 0.092969455 0.26100001 10331041
-0.1503247 0.092613257 0.26000002 10528420
-0.14964747 0.092613257 0.26000002 10660006
-0.14897025 0.092613257 0.26000002 10725799
-0.14829302 0.092613257 0.26000002 10528422
-0.14704806 0.092257045 0.259 10396836
-0.14637342 0.092257045 0.259 10461859
-0.1456988 0.092257045 0.259 10396066
-0.14502418 0.092257045 0.259 10265250
-0.14434958 0.092257045 0.259 10199970
-0.14367495 0.092257045 0.259 10199970
-0.14300032 0.092257045 0.259 10199970
-0.1423257 0.092257045 0.259 10199457
-0.14165108 0.092257045 0.259 10265250
-0.14097647 0.092257045 0.259 10265250
-0.14030185 0.092257045 0.259 10265250
-0.13962722 0.092257045 0.259 10199455
-0.1389526 0.092257045 0.259 10133662
-0.13827799 0.092257045 0.259 10134175
-0.13760337 0.092257045 0.259 10199968
-0.13692875 0.092257045 0.259 10002591
-0.1367802 0.092613257 0.26000002 9936283
-0.13610297 0.092613257 0.26000002 9936283
-0.13542578 0.092613257 0.26000002 10067869
-0.13423027 0.092257045 0.259 10199455
-0.13355565 0.092257045 0.259 10199455
-0.13288102 0.092257045 0.259 10133662
-0.13220641 0.092257045 0.259 9936536
-0.13153179 0.092257045 0.259 10068122
-0.13085717 0.092257045 0.259 10068122
-0.12967992 0.091900848 0.25800002 9936536
-0.12900789 0.091900848 0.25800002 9870743
-0.12833589 0.091900848 0.25800002 9935766
-0.12766388 0.091900848 0.25800002 9935766
-0.12699185 0.091900848 0.25800002 10132375
-0.12583023 0.091544636 0.257 9935766
-0.12516081 0.091544636 0.257 9935766
-0.12449141 0.091544636 0.257 10000789
-0.12382199 0.091544636 0.257 10132375
-0.12315258 0.091544636 0.257 10198168
-0.12248317 0.091544636 0.257 10198168
-0.12181376 0.091544636 0.257 10132375
-0.12114435 0.091544636 0.257 9935766
-0.12047493 0.091544636 0.257 10001559
-0.11980553 0.091544636 0.257 10066580
-0.11913612 0.091544636 0.257 9934994
-0.11846671 0.091544636 0.257 9869201
-0.1177973 0.091544636 0.257 10000787
-0.11712789 0.091544636 0.257 10000787
-0.11645848 0.091544636 0.257 9671822
-0.11578906 0.091544636 0.257 9803408
-0.11511966 0.091544636 0.257 10000530
-0.11445025 0.091544636 0.257 10132116
-0.11378084 0.091544636 0.257 10000530
-0.11311142 0.091544636 0.257 10000530
-0.11244201 0.091544636 0.257 10000530
-0.1117726 0.091544636 0.257 9869455
-0.11110319 0.091544636 0.257 9869455
-0.11043379 0.091544636 0.257 9935248
-0.10976437 0.091544636 0.257 10000787
-0.10909496 0.091544636 0.257 9869201
-0.10800367 0.091188438 0.25600001 9803408
-0.10733686 0.091188438 0.25600001 9671822
-0.10667006 0.091188438 0.25600001 9934996
-0.10600325 0.091188438 0.25600001 9934996
-0.10533644 0.091188438 0.25600001 10066580
-0.10426078 0.090832233 0.25500003 9934994
-0.10359658 0.090832233 0.25500003 9934994
-0.10293238 0.090832233 0.25500003 10066580
-0.10226818 0.090832233 0.25500003 10001557
-0.10120552 0.090476021 0.25400001 10198936
-0.10054393 0.090476021 0.25400001 10067350
-0.099882327 0.090476021 0.25400001 10067350
-0.09922073 0.090476021 0.25400001 9869971
-0.098559134 0.090476021 0.25400001 10000787
-0.097897537 0.090476021 0.25400001 9934994
-0.097235948 0.090476021 0.25400001 9934994
-0.096574344 0.090476021 0.25400001 10000787
-0.095912755 0.090476021 0.25400001 9934994
-0.09525115 0.090476021 0.25400001 9934994
-0.094589554 0.090476021 0.25400001 10000530
-0.093927965 0.090476021 0.25400001 10000530
-0.092899173 0.090119824 0.25300002 10132116
-0.092240192 0.090119824 0.25300002 10198166
-0.091581196 0.090119824 0.25300002 10395545
-0.090922207 0.090119824 0.25300002 10329752
-0.09026321 0.090119824 0.25300002 10329752
-0.089604221 0.090119824 0.25300002 10329752
-0.089296788 0.090476021 0.25400001 10329752
-0.088635184 0.090476021 0.25400001 10329752
-0.087973595 0.090476021 0.25400001 10461338
-0.086968251 0.090119824 0.25300002 10527131
-0.086309262 0.090119824 0.25300002 10461340
-0.085650273 0.090119824 0.25300002 10395547
-0.084991284 0.090119824 0.25300002 10329754
-0.084332287 0.090119824 0.25300002 10330271
-0.083673298 0.090119824 0.25300002 10396064
-0.083014302 0.090119824 0.25300002 10461857
-0.08202979 0.089763612 0.252 10527903
-0.081696324 0.090119824 0.25300002 10462110
-0.081037328 0.090119824 0.25300002 10592926
-0.080060631 0.089763612 0.252 10658719
-0.079404242 0.089763612 0.252 10724253
-0.078747861 0.089763612 0.252 10855839
-0.078091472 0.089763612 0.252 10724255
-0.077435084 0.089763612 0.252 10856098
-0.076778695 0.089763612 0.252 10856098
-0.076122306 0.089763612 0.252 10921891
-0.075166464 0.089407414 0.25100002 10856098
-0.074512675 0.089407414 0.25100002 10921891
-0.073858894 0.089407414 0.25100002 10987684
-0.073205113 0.089407414 0.25100002 10987684
-0.072551332 0.089407414 0.25100002 11053477
-0.071897551 0.089407414 0.25100002 11119270
-0.071243763 0.089407414 0.25100002 11382185
-0.070589982 0.089407414 0.25100002 11382185
-0.069936201 0.089407414 0.25100002 11447978
-0.06928242 0.089407414 0.25100002 11513518
-0.06835521 0.089051202 0.25 11513775
-0.067704037 0.089051202 0.25 11645104
-0.067052856 0.089051202 0.25 11776690
-0.066401683 0.089051202 0.25 11908276
-0.065750502 0.089051202 0.25 11908276
-0.065099321 0.089051202 0.25 11842483
-0.064448148 0.089051202 0.25 11842740
-0.063796967 0.089051202 0.25 11974326
-0.063145794 0.089051202 0.25 12237498
-0.062494613 0.089051202 0.25 12237498
-0.061843436 0.089051202 0.25 12237498
-0.061192259 0.089051202 0.25 12303291
-0.06029892 0.088695005 0.24900001 12369084
-0.05965035 0.088695005 0.24900001 12434877
-0.059001777 0.088695005 0.24900001 12632256
-0.058353204 0.088695005 0.24900001 12500670
-0.057704631 0.088695005 0.24900001 12500670
-0.057056054 0.088695005 0.24900001 12434877
-0.056407481 0.088695005 0.24900001 12369854
-0.055758912 0.088695005 0.24900001 12501440
-0.055110339 0.088695005 0.24900001 12369854
-0.054461766 0.088695005 0.24900001 12369854
-0.053813193 0.088695005 0.24900001 12501440
-0.05316462 0.088695005 0.24900001 12369854
-0.05230514 0.0883388 0.24800001 12304061
-0.051659171 0.0883388 0.24800001 12567233
-0.051013201 0.0883388 0.24800001 12501440
-0.050367236 0.0883388 0.24800001 12567233
-0.049721267 0.0883388 0.24800001 12501440
-0.049075298 0.0883388 0.24800001 12567233
-0.048429333 0.0883388 0.24800001 12698049
-0.047783364 0.0883388 0.24800001 12698049
-0.047137395 0.0883388 0.24800001 12698049
-0.046491429 0.0883388 0.24800001 12698049
-0.045845456 0.0883388 0.24800001 12698049
-0.045199491 0.0883388 0.24800001 12698049
-0.044553522 0.0883388 0.24800001 12698049
-0.043907553 0.0883388 0.24800001 12698049
-0.043087143 0.087982588 0.24700001 12829635
-0.042443782 0.087982588 0.24700001 12895428
-0.041800417 0.087982588 0.24700001 12895428
-0.041157056 0.087982588 0.24700001 12829635
-0.040349666 0.087626383 0.24600001 12829635
-0.039708909 0.087626383 0.24600001 12829635
-0.039068148 0.087626383 0.24600001 12764612
-0.03842739 0.087626383 0.24600001 12764612
-0.037786633 0.087626383 0.24600001 12764612
-0.037145875 0.087626383 0.24600001 12698819
-0.036505118 0.087626383 0.24600001 12698819
-0.035864357 0.087626383 0.24600001 12764612
-0.035223596 0.087626383 0.24600001 12764612
-0.034582838 0.087626383 0.24600001 12698819
-0.033942081 0.087626383 0.24600001 12961991
-0.033301324 0.087626383 0.24600001 13027784
-0.032660563 0.087626383 0.24600001 13159370
-0.031889644 0.087270178 0.245 13029069
-0.03125149 0.087270178 0.245 13292241
-0.030613335 0.087270178 0.245 13226450
-0.029975181 0.087270178 0.245 13292243
-0.029337028 0.087270178 0.245 13423829
-0.028698875 0.087270178 0.245 13292243
-0.028060719 0.087270178 0.245 13292243
-0.027422566 0.087270178 0.245 13160144
-0.026784413 0.087270178 0.245 13160144
-0.026146259 0.087270178 0.245 13094351
-0.025508102 0.087270178 0.245 12962765
-0.024869949 0.087270178 0.245 13225165
-0.024132892 0.086913981 0.24400002 13422544
-0.023497343 0.086913981 0.24400002 13488339
-0.022861792 0.086913981 0.24400002 13488339
-0.022226244 0.086913981 0.24400002 13554132
-0.021590695 0.086913981 0.24400002 13554132
-0.020955145 0.086913981 0.24400002 13290960
-0.020319598 0.086913981 0.24400002 13159374
-0.019684047 0.086913981 0.24400002 13290960
-0.019048497 0.086913981 0.24400002 13290960
-0.018337486 0.086557776 0.24300002 13488337
-0.017704543 0.086557776 0.24300002 13554130
-0.017071595 0.086557776 0.24300002 13488337
-0.016438652 0.086557776 0.24300002 13290188
-0.015805708 0.086557776 0.24300002 13158602
-0.015172763 0.086557776 0.24300002 13421774
-0.014539818 0.086557776 0.24300002 13554130
-0.013906874 0.086557776 0.24300002 13619923
-0.013273929 0.086557776 0.24300002 13488337
-0.012588964 0.086201571 0.24200001 13422544
-0.011958624 0.086201571 0.24200001 13554132
-0.011328284 0.086201571 0.24200001 13619925
-0.010697945 0.086201571 0.24200001 13488855
-0.010067604 0.086201571 0.24200001 13554648
-0.0094372649 0.086201571 0.24200001 13620441
-0.0088069253 0.086201571 0.24200001 13423062
-0.0081765857 0.086201571 0.24200001 13291730
-0.0075462456 0.086201571 0.24200001 13290960
-0.0068873274 0.085845366 0.24100001 13554132
-0.0062595922 0.085845366 0.24100001 13619925
-0.0056318571 0.085845366 0.24100001 13619925
-0.0050041224 0.085845366 0.24100001 13488339
-0.0043763872 0.085845366 0.24100001 13355981
-0.0037486521 0.085845366 0.24100001 13421774
-0.0031209171 0.085845366 0.24100001 13553360
-0.002493182 0.085845366 0.24100001 13882325
-0.0018654468 0.085845366 0.24100001 13882327
-0.0012377118 0.085845366 0.24100001 13883097
-0.00060997665 0.085845366 0.24100001 13619925
1.7758497e-05 0.085845366 0.24100001 13488339
0.00064549362 0.085845366 0.24100001 13225165
0.0012732288 0.085845366 0.24100001 13290958
0.0019009637 0.085845366 0.24100001 13685716
0.0025286989 0.085845366 0.24100001 13883095
0.0031433369 0.085489154 0.24000001 13685718
0.0037684671 0.085489154 0.24000001 13619925
0.0043935976 0.085489154 0.24000001 13619925
0.0050187279 0.085489154 0.24000001 13488339
0.0056438586 0.085489154 0.24000001 13422546
0.0062689888 0.085489154 0.24000001 13421776
0.0068941191 0.085489154 0.24000001 13554132
0.0075192498 0.085489154 0.24000001 13619925
0.0081443796 0.085489154 0.24000001 13751511
0.0087695103 0.085489154 0.24000001 13619925
0.0093946401 0.085489154 0.24000001 13619923
0.010019771 0.085489154 0.24000001 13685716
0.010600547 0.085132949 0.23900001 13554130
0.011223073 0.085132949 0.23900001 13225165
0.011845599 0.085132949 0.23900001 13159372
0.012468125 0.085132949 0.23900001 13355981
0.013090651 0.085132949 0.23900001 13355981
0.013713176 0.085132949 0.23900001 13619153
0.014335701 0.085132949 0.23900001 13554130
0.014958228 0.085132949 0.23900001 13619923
0.015580753 0.085132949 0.23900001 13685716
0.016203279 0.085132949 0.23900001 13554900
0.016825803 0.085132949 0.23900001 13357521
0.01744833 0.085132949 0.23900001 13225165
0.017995246 0.084776744 0.23800001 13093579
0.018615166 0.084776744 0.23800001 13290958
0.019235086 0.084776744 0.23800001 13554130
0.019855009 0.084776744 0.23800001 13489107
0.020474929 0.084776744 0.23800001 13160142
0.021094849 0.084776744 0.23800001 13094349
0.021714771 0.084776744 0.23800001 13554130
0.022334693 0.084776744 0.23800001 13620693
0.022954613 0.084776744 0.23800001 13950173
0.023574533 0.084776744 0.23800001 13687001
0.024194455 0.084776744 0.23800001 13555415
0.024710115 0.084420547 0.23700002 13291728
0.025327431 0.084420547 0.23700002 13290958
0.025944747 0.084420547 0.23700002 13488337
0.026562063 0.084420547 0.23700002 13620693
0.027179381 0.084420547 0.23700002 13620693
0.027796697 0.084420547 0.23700002 13620693
0.028414013 0.084420547 0.23700002 13489107
0.029031329 0.084420547 0.23700002 13160142
0.029648647 0.084420547 0.23700002 13489109
0.030265963 0.084420547 0.23700002 13620695
0.030883279 0.084420547 0.23700002 13555415
0.031500593 0.084420547 0.23700002 13423829
0.032117911 0.084420547 0.23700002 13160144
0.032735225 0.084420547 0.23700002 13291730
0.033211812 0.084064342 0.23600002 13291730
0.033826526 0.084064342 0.23600002 13423316
0.03444124 0.084064342 0.23600002 13423316
0.03505595 0.084064342 0.23600002 13554902
0.03567066 0.084064342 0.23600002 13489109
0.036285371 0.084064342 0.23600002 13357521
0.036900084 0.084064342 0.23600002 13554130
0.037514795 0.084064342 0.23600002 13554130
0.037967939 0.083708137 0.23500001 13423314
0.038744219 0.084064342 0.23600002 13423314
0.039192155 0.083708137 0.23500001 13423314
0.039804261 0.083708137 0.23500001 13423314
0.040416367 0.083708137 0.23500001 13357521
0.041028477 0.083708137 0.23500001 13488337
0.041640583 0.083708137 0.23500001 13554130
0.04225269 0.083708137 0.23500001 13619923
0.042864796 0.083708137 0.23500001 13818072
0.043476902 0.083708137 0.23500001 13884378
0.044089012 0.083708137 0.23500001 13752792
0.044701118 0.083708137 0.23500001 13686999
0.045313224 0.083708137 0.23500001 13555413
0.04592533 0.083708137 0.23500001 13620693
0.046537437 0.083708137 0.23500001 13818072
0.047149543 0.083708137 0.23500001 13423314
0.047761649 0.083708137 0.23500001 13357521
0.048373755 0.083708137 0.23500001 13489107
0.048985865 0.083708137 0.23500001 13554900
0.049597971 0.083708137 0.23500001 13752279
0.050210077 0.083708137 0.23500001 13818072
0.050822187 0.083708137 0.23500001 13818072
0.051434293 0.083708137 0.23500001 13489107
0.0520464 0.083708137 0.23500001 13554900
0.052658506 0.083708137 0.23500001 13687001
0.053043928 0.083351932 0.23400001 13687001
0.05365343 0.083351932 0.23400001 13687001
0.054262932 0.083351932 0.23400001 13687001
0.054872435 0.083351932 0.23400001 13752794
0.055481937 0.083351932 0.23400001 13489109
0.056091439 0.083351932 0.23400001 13752281
0.056700941 0.083351932 0.23400001 13883867
0.057310443 0.083351932 0.23400001 13818074
0.057919946 0.083351932 0.23400001 13818587
0.058529448 0.083351932 0.23400001 13950173
0.05913895 0.083351932 0.23400001 14015966
0.059493113 0.08299572 0.23300001 14015966
0.060100015 0.08299572 0.23300001 13620695
0.06070691 0.08299572 0.23300001 13489109
0.061313808 0.08299572 0.23300001 13752281
0.06192071 0.08299572 0.23300001 13818074
0.062527604 0.08299572 0.23300001 13950173
0.063134506 0.08299572 0.23300001 14147552
0.063741393 0.08299572 0.23300001 14082275
0.064348295 0.08299572 0.23300001 14016997
0.06495519 0.08299572 0.23300001 13951204
0.065562092 0.08299572 0.23300001 13687519
0.066168986 0.08299572 0.23300001 13818587
0.066775888 0.08299572 0.23300001 13884380
0.067093588 0.082639515 0.23200001 14213091
0.067697875 0.082639515 0.23200001 14147298
0.068302169 0.082639515 0.23200001 14015712
0.068906464 0.082639515 0.23200001 13818333
0.069510758 0.082639515 0.23200001 13884896
0.070115045 0.082639515 0.23200001 13819103
0.070719339 0.082639515 0.23200001 13687517
0.071323641 0.082639515 0.23200001 13424345
0.071927927 0.082639515 0.23200001 13556185
0.072532222 0.082639515 0.23200001 13424599
0.073136508 0.082639515 0.23200001 13556185
0.07374081 0.082639515 0.23200001 13621978
0.07402464 0.082283311 0.23100001 13949919
0.074626334 0.082283311 0.23100001 14543343
0.075228021 0.082283311 0.23100001 14346994
0.075829707 0.082283311 0.23100001 14346994
0.076431401 0.082283311 0.23100001 14281201
0.07703308 0.082283311 0.23100001 14412789
0.077634774 0.082283311 0.23100001 14215408
0.078236461 0.082283311 0.23100001 14148845
0.078838147 0.082283311 0.23100001 14214640
0.079439834 0.082283311 0.23100001 14083054
0.080041528 0.082283311 0.23100001 14017261
0.080643207 0.082283311 0.23100001 13951468
0.081244901 0.082283311 0.23100001 14345710
0.081492275 0.081927106 0.23 14345710
0.082091354 0.081927106 0.23 14543089
0.08269044 0.081927106 0.23 14214124
0.083289519 0.081927106 0.23 14279658
0.083888605 0.081927106 0.23 14345964
0.084487684 0.081927106 0.23 14477298
0.08508677 0.081927106 0.23 14279919
0.085685857 0.081927106 0.23 14213613
0.086284935 0.081927106 0.23 14345199
0.086884022 0.081927106 0.23 14543091
0.087483108 0.081927106 0.23 14279919
0.087699227 0.081570908 0.22900002 14279919
0.088295706 0.081570908 0.22900002 14412019
0.088892184 0.081570908 0.22900002 14214386
0.089488663 0.081570908 0.22900002 13884646
0.090085141 0.081570908 0.22900002 14345197
0.090681627 0.081570908 0.22900002 14410990
0.091278099 0.081570908 0.22900002 14412017
0.091874577 0.081570908 0.22900002 14412019
0.092471056 0.081570908 0.22900002 14346226
0.093067534 0.081570908 0.22900002 14412789
0.093664013 0.081570908 0.22900002 14346996
0.094260491 0.081570908 0.22900002 13951466
0.09485697 0.081570908 0.22900002 14082279
0.095453449 0.081570908 0.22900002 14411244
0.096049935 0.081570908 0.22900002 14674416
0.096646406 0.081570908 0.22900002 14082538
0.097242884 0.081570908 0.22900002 14543089
0.097839363 0.081570908 0.22900002 14214638
0.098005995 0.081214704 0.22800002 14083054
0.098599866 0.081214704 0.22800002 14214638
0.099193737 0.081214704 0.22800002 14412017
0.099787608 0.081214704 0.22800002 14477810
0.10038149 0.081214704 0.22800002 14017259
0.10097536 0.081214704 0.22800002 14214892
0.10156924 0.081214704 0.22800002 14412271
0.10216311 0.081214704 0.22800002 14346994
0.10275698 0.081214704 0.22800002 14018029
0.10335086 0.081214704 0.22800002 14017259
-0.15430202 0.093649283 0.26100001 10594215
-0.1536222 0.093649283 0.26100001 10528422
-0.15235637 0.093290478 0.26000002 10528422
-0.15167914 0.093290478 0.26000002 10594215
-0.15100193 0.093290478 0.26000002 10725801
-0.1503247 0.093290478 0.26000002 10791592
-0.1490719 0.092931665 0.259 10660006
-0.14839728 0.092931665 0.259 10660008
-0.14772266 0.092931665 0.259 10660008
-0.14704806 0.092931665 0.259 10594215
-0.14580828 0.09257286 0.25800002 10331043
-0.14513627 0.09257286 0.25800002 10331043
-0.14446425 0.09257286 0.25800002 10265250
-0.14379224 0.09257286 0.25800002 10199970
-0.14312023 0.09257286 0.25800002 10199970
-0.1424482 0.09257286 0.25800002 10265250
-0.14177619 0.09257286 0.25800002 10396836
-0.14110418 0.09257286 0.25800002 10463142
-0.14043216 0.09257286 0.25800002 10265763
-0.13976015 0.09257286 0.25800002 10265763
-0.13908812 0.09257286 0.25800002 10199970
-0.13841611 0.09257286 0.25800002 10331041
-0.13774411 0.09257286 0.25800002 10396836
-0.13707209 0.09257286 0.25800002 10331043
-0.13572805 0.09257286 0.25800002 10133662
-0.13505603 0.09257286 0.25800002 10199455
-0.13438404 0.09257286 0.25800002 10133662
-0.13371201 0.09257286 0.25800002 10265248
-0.13304 0.09257286 0.25800002 10199455
-0.13236797 0.09257286 0.25800002 10067869
-0.13169597 0.09257286 0.25800002 10133915
-0.13102396 0.09257286 0.25800002 10068122
-0.13035193 0.09257286 0.25800002 10068122
-0.12917727 0.09221404 0.257 10068122
-0.12850785 0.09221404 0.257 10001559
-0.12783845 0.09221404 0.257 10001559
-0.12716904 0.09221404 0.257 10198938
-0.12649964 0.09221404 0.257 10198938
-0.12583023 0.09221404 0.257 10001559
-0.12467381 0.091855235 0.25600001 10001559
-0.12400701 0.091855235 0.25600001 10066582
-0.1233402 0.091855235 0.25600001 10329754
-0.12267339 0.091855235 0.25600001 10329754
-0.12248317 0.09221404 0.257 10198168
-0.12181376 0.09221404 0.257 10001559
-0.12114435 0.09221404 0.257 10001559
-0.12047493 0.09221404 0.257 10067352
-0.11980553 0.09221404 0.257 10132373
-0.11913612 0.09221404 0.257 10000787
-0.11846671 0.09221404 0.257 10066580
-0.1177973 0.09221404 0.257 10066580
-0.11712789 0.09221404 0.257 10066580
-0.11645848 0.09221404 0.257 9869201
-0.11578906 0.09221404 0.257 9934994
-0.11467173 0.091855235 0.25600001 10066323
-0.11400492 0.091855235 0.25600001 10132116
-0.11333812 0.091855235 0.25600001 10066323
-0.11267131 0.091855235 0.25600001 10066323
-0.1120045 0.091855235 0.25600001 10000530
-0.1113377 0.091855235 0.25600001 10066580
-0.11023859 0.09149643 0.25500003 10066580
-0.10957439 0.09149643 0.25500003 10066580
-0.10891019 0.09149643 0.25500003 10066582
-0.10824599 0.09149643 0.25500003 10000789
-0.10758179 0.09149643 0.25500003 9934996
-0.10691759 0.09149643 0.25500003 9934996
-0.10625339 0.09149643 0.25500003 10066582
-0.10517509 0.091137618 0.25400001 10329754
-0.1045135 0.091137618 0.25400001 10132375
-0.10385191 0.091137618 0.25400001 10000787
-0.10319031 0.091137618 0.25400001 10066580
-0.10252871 0.091137618 0.25400001 10329752
-0.10146607 0.090778813 0.25300002 10198936
-0.10080708 0.090778813 0.25300002 10133915
-0.10014809 0.090778813 0.25300002 10198938
-0.099489093 0.090778813 0.25300002 10067352
-0.098830104 0.090778813 0.25300002 10067352
-0.098171115 0.090778813 0.25300002 10132373
-0.097512119 0.090778813 0.25300002 10132373
-0.09685313 0.090778813 0.25300002 10132373
-0.096194133 0.090778813 0.25300002 10132373
-0.095535152 0.090778813 0.25300002 10198166
-0.094876155 0.090778813 0.25300002 10329752
-0.094217159 0.090778813 0.25300002 10197909
-0.09355817 0.090778813 0.25300002 10263702
-0.092899173 0.090778813 0.25300002 10263702
-0.092240192 0.090778813 0.25300002 10395545
-0.091219209 0.090419993 0.252 10395545
-0.090922207 0.090778813 0.25300002 10527133
-0.09026321 0.090778813 0.25300002 10592926
-0.089604221 0.090778813 0.25300002 10527133
-0.088945232 0.090778813 0.25300002 10527133
-0.088286236 0.090778813 0.25300002 10395547
-0.087627247 0.090778813 0.25300002 10592926
-0.086624496 0.090419993 0.252 10592926
-0.085968114 0.090419993 0.252 10658719
-0.085311726 0.090419993 0.252 10592926
-0.084655344 0.090419993 0.252 10396317
-0.083998956 0.090419993 0.252 10725282
-0.083342567 0.090419993 0.252 10527903
-0.082358062 0.090061188 0.25100002 10725282
-0.081704281 0.090061188 0.25100002 10725282
-0.0810505 0.090061188 0.25100002 10856098
-0.080396712 0.090061188 0.25100002 10921891
-0.079742938 0.090061188 0.25100002 10987684
-0.07908915 0.090061188 0.25100002 11053218
-0.078435376 0.090061188 0.25100002 11119011
-0.077781588 0.090061188 0.25100002 11119011
-0.077127799 0.090061188 0.25100002 11119013
-0.076474026 0.090061188 0.25100002 11119013
-0.075820237 0.090061188 0.25100002 11184553
-0.075166464 0.090061188 0.25100002 11053224
-0.074512675 0.090061188 0.25100002 11053224
-0.073564634 0.089702375 0.25 11250603
-0.072913453 0.089702375 0.25 11250603
-0.07226228 0.089702375 0.25 11316392
-0.071611099 0.089702375 0.25 11447978
-0.070959918 0.089702375 0.25 11513518
-0.070308745 0.089702375 0.25 11776690
-0.069657564 0.089702375 0.25 11776690
-0.069006391 0.089702375 0.25 11842740
-0.068081796 0.08934357 0.24900001 11842740
-0.067433223 0.08934357 0.24900001 11908533
-0.06678465 0.08934357 0.24900001 11908533
-0.066136077 0.08934357 0.24900001 11908533
-0.065487504 0.08934357 0.24900001 11974326
-0.064838931 0.08934357 0.24900001 11974326
-0.064190358 0.08934357 0.24900001 12040119
-0.063541785 0.08934357 0.24900001 12171705
-0.062893212 0.08934357 0.24900001 12237498
-0.062244639 0.08934357 0.24900001 12303291
-0.061596066 0.08934357 0.24900001 12303291
-0.060947493 0.08934357 0.24900001 12369084
-0.06029892 0.08934357 0.24900001 12434877
-0.05965035 0.08934357 0.24900001 12633026
-0.058764819 0.088984758 0.24800001 12567233
-0.058118854 0.088984758 0.24800001 12501440
-0.057472885 0.088984758 0.24800001 12369854
-0.056826916 0.088984758 0.24800001 12369854
-0.056180947 0.088984758 0.24800001 12501440
-0.055534977 0.088984758 0.24800001 12501440
-0.054889012 0.088984758 0.24800001 12501440
-0.054243043 0.088984758 0.24800001 12369854
-0.053597078 0.088984758 0.24800001 12501440
-0.052951109 0.088984758 0.24800001 12369854
-0.05230514 0.088984758 0.24800001 12369854
-0.051450867 0.088625953 0.24700001 12633026
-0.050807502 0.088625953 0.24700001 12567233
-0.050164141 0.088625953 0.24700001 12567233
-0.049520776 0.088625953 0.24700001 12567233
-0.048877414 0.088625953 0.24700001 12567233
-0.048234053 0.088625953 0.24700001 12633026
-0.047590688 0.088625953 0.24700001 12633026
-0.046947327 0.088625953 0.24700001 12633026
-0.046303961 0.088625953 0.24700001 12567233
-0.045660596 0.088625953 0.24700001 12633026
-0.045017235 0.088625953 0.24700001 12633026
-0.04437387 0.088625953 0.24700001 12567233
-0.04355346 0.08826714 0.24600001 12567233
-0.042912703 0.08826714 0.24600001 12698819
-0.042271946 0.08826714 0.24600001 12895428
-0.041631185 0.08826714 0.24600001 12895428
-0.040990427 0.08826714 0.24600001 12829635
-0.040185641 0.087908328 0.245 12829635
-0.039547488 0.087908328 0.245 12895428
-0.038909335 0.087908328 0.245 12764612
-0.038271181 0.087908328 0.245 12764612
-0.037633028 0.087908328 0.245 12764612
-0.036994874 0.087908328 0.245 12633026
-0.036356721 0.087908328 0.245 12698819
-0.035718568 0.087908328 0.245 12764612
-0.035080411 0.087908328 0.245 12764612
-0.034442257 0.087908328 0.245 12764612
-0.033804104 0.087908328 0.245 13027784
-0.03316595 0.087908328 0.245 13159370
-0.032527797 0.087908328 0.245 13159370
-0.031889644 0.087908328 0.245 13094347
-0.03125149 0.087908328 0.245 13291726
-0.030613335 0.087908328 0.245 13226450
-0.029852835 0.087549523 0.24400002 13358036
-0.029217286 0.087549523 0.24400002 13358036
-0.028581737 0.087549523 0.24400002 13292243
-0.027946187 0.087549523 0.24400002 13292243
-0.027310638 0.087549523 0.24400002 13291730
-0.026675088 0.087549523 0.24400002 13160144
-0.026039541 0.087549523 0.24400002 13093581
-0.025403989 0.087549523 0.24400002 13159374
-0.02476844 0.087549523 0.24400002 13290960
-0.024132892 0.087549523 0.24400002 13422546
-0.023497343 0.087549523 0.24400002 13488339
-0.022861792 0.087549523 0.24400002 13554132
-0.022135152 0.087190717 0.24300002 13422546
-0.021502208 0.087190717 0.24300002 13290960
-0.020869264 0.087190717 0.24300002 13159374
-0.020236321 0.087190717 0.24300002 13225167
-0.019603373 0.087190717 0.24300002 13290960
-0.01897043 0.087190717 0.24300002 13422546
-0.018262023 0.086831905 0.24200001 13290960
-0.017631683 0.086831905 0.24200001 13422546
-0.017001342 0.086831905 0.24200001 13422544
-0.016371002 0.086831905 0.24200001 13224395
-0.015740663 0.086831905 0.24200001 13355981
-0.015110323 0.086831905 0.24200001 13553360
-0.014479984 0.086831905 0.24200001 13554130
-0.013849643 0.086831905 0.24200001 13554130
-0.013219304 0.086831905 0.24200001 13422544
-0.012588964 0.086831905 0.24200001 13422544
-0.011909208 0.086473092 0.24100001 13619925
-0.011281473 0.086473092 0.24100001 13620695
-0.010653738 0.086473092 0.24100001 13752027
-0.010026002 0.086473092 0.24100001 13489109
-0.0093982676 0.086473092 0.24100001 13489109
-0.0087705329 0.086473092 0.24100001 13290960
-0.0081427982 0.086473092 0.24100001 13290958
-0.0075150626 0.086473092 0.24100001 13422544
-0.0068873274 0.086473092 0.24100001 13685716
-0.0062595922 0.086473092 0.24100001 13751509
-0.0056084883 0.08611428 0.24000001 13619923
-0.0049833581 0.08611428 0.24000001 13421774
-0.0043582278 0.08611428 0.24000001 13421774
-0.0037330976 0.08611428 0.24000001 13619153
-0.0031079671 0.08611428 0.24000001 13882325
-0.0024828368 0.08611428 0.24000001 14013911
-0.0018577063 0.08611428 0.24000001 13883097
-0.001232576 0.08611428 0.24000001 13751511
-0.0006074456 0.08611428 0.24000001 13488339
1.768481e-05 0.08611428 0.24000001 13488339
0.0006428152 0.08611428 0.24000001 13422544
0.0012679456 0.08611428 0.24000001 13488337
0.0018930759 0.08611428 0.24000001 13882843
0.0025182064 0.08611428 0.24000001 13882843
0.0031433369 0.08611428 0.24000001 13751257
0.0037684671 0.08611428 0.24000001 13619671
0.0043935976 0.08611428 0.24000001 13619925
0.0049978164 0.085755475 0.23900001 13290960
0.0056203422 0.085755475 0.23900001 13225167
0.006242868 0.085755475 0.23900001 13488339
0.0068653938 0.085755475 0.23900001 13620695
0.0074879192 0.085755475 0.23900001 13620695
0.008110445 0.085755475 0.23900001 13554902
0.0087329708 0.085755475 0.23900001 13489109
0.0093554957 0.085755475 0.23900001 13489109
0.0099362731 0.085396662 0.23800001 13620695
0.010556194 0.085396662 0.23800001 13489107
0.011176115 0.085396662 0.23800001 13225165
0.011796036 0.085396662 0.23800001 13159372
0.012415957 0.085396662 0.23800001 13225165
0.013035878 0.085396662 0.23800001 13290958
0.013655799 0.085396662 0.23800001 13422544
0.014275719 0.085396662 0.23800001 13619923
0.014895641 0.085396662 0.23800001 13685716
0.015515561 0.085396662 0.23800001 13554902
0.016135482 0.085396662 0.23800001 13423316
0.016755402 0.085396662 0.23800001 13290960
0.017375324 0.085396662 0.23800001 13159372
0.017995246 0.085396662 0.23800001 13159372
0.018615166 0.085396662 0.23800001 13422544
0.019235086 0.085396662 0.23800001 13489107
0.019855009 0.085396662 0.23800001 13489107
0.020388901 0.085037857 0.23700002 13094349
0.021006217 0.085037857 0.23700002 13094349
0.021623533 0.085037857 0.23700002 13554130
0.022240851 0.085037857 0.23700002 13949658
0.022858167 0.085037857 0.23700002 13818585
0.023475483 0.085037857 0.23700002 13423829
0.024092799 0.085037857 0.23700002 13423829
0.024710115 0.085037857 0.23700002 13291728
0.025327431 0.085037857 0.23700002 13291728
0.025835276 0.084679045 0.23600002 13423314
0.026449988 0.084679045 0.23600002 13620693
0.0270647 0.084679045 0.23600002 13620693
0.027679412 0.084679045 0.23600002 13555413
0.028294122 0.084679045 0.23600002 13160142
0.028908834 0.084679045 0.23600002 13160142
0.029523546 0.084679045 0.23600002 13554900
0.030138258 0.084679045 0.23600002 13620693
0.030752968 0.084679045 0.23600002 13555413
0.031367678 0.084679045 0.23600002 13423827
0.031982392 0.084679045 0.23600002 13160142
0.032597102 0.084679045 0.23600002 13291728
0.033211812 0.084679045 0.23600002 13291728
0.033826526 0.084679045 0.23600002 13423314
0.034295302 0.08432024 0.23500001 13423314
0.034907408 0.08432024 0.23500001 13554900
0.035519514 0.08432024 0.23500001 13422544
0.03613162 0.08432024 0.23500001 13422544
0.036743727 0.08432024 0.23500001 13488337
0.037355833 0.08432024 0.23500001 13554130
0.037967939 0.08432024 0.23500001 13423314
0.038580049 0.08432024 0.23500001 13423314
0.039192155 0.08432024 0.23500001 13423314
0.039804261 0.08432024 0.23500001 13423314
0.040416367 0.08432024 0.23500001 13357521
0.041028477 0.08432024 0.23500001 13422544
0.041463386 0.083961427 0.23400001 13554130
0.042072888 0.083961427 0.23400001 13619923
0.042682391 0.083961427 0.23400001 13752279
0.043291893 0.083961427 0.23400001 13752792
0.043901399 0.083961427 0.23400001 13555413
0.044510901 0.083961427 0.23400001 13555413
0.045120403 0.083961427 0.23400001 13555413
0.045729902 0.083961427 0.23400001 13686999
0.046339404 0.083961427 0.23400001 13752792
0.046948906 0.083961427 0.23400001 13423314
0.047558408 0.083961427 0.23400001 13357521
0.04816791 0.083961427 0.23400001 13489620
0.048777416 0.083961427 0.23400001 13555413
0.049386919 0.083961427 0.23400001 13687001
0.049996417 0.083961427 0.23400001 13687001
0.050605919 0.083961427 0.23400001 13555415
0.051215421 0.083961427 0.23400001 13489622
0.051824924 0.083961427 0.23400001 13687001
0.052434426 0.083961427 0.23400001 13752794
0.053043928 0.083961427 0.23400001 13555415
0.053424139 0.083602615 0.23300001 13687001
0.054031041 0.083602615 0.23300001 13752794
0.054637939 0.083602615 0.23300001 13489109
0.055244833 0.083602615 0.23300001 13489109
0.055851731 0.083602615 0.23300001 13752281
0.05645863 0.083602615 0.23300001 13883867
0.057065524 0.083602615 0.23300001 13687001
0.057672422 0.083602615 0.23300001 13555415
0.058279321 0.083602615 0.23300001 13818587
0.058886219 0.083602615 0.23300001 13884380
0.059493113 0.083602615 0.23300001 13884380
0.060100015 0.083602615 0.23300001 13554900
0.060446363 0.08324381 0.23200001 13489107
0.061050657 0.08324381 0.23200001 13752279
0.061654955 0.08324381 0.23200001 13883865
0.062259242 0.08324381 0.23200001 13818072
0.062863536 0.08324381 0.23200001 14015451
0.06346783 0.08324381 0.23200001 14016482
0.064072125 0.08324381 0.23200001 13884896
0.064676411 0.08324381 0.23200001 13752540
0.065280706 0.08324381 0.23200001 13555161
0.065885 0.08324381 0.23200001 13555415
0.066489294 0.08324381 0.23200001 13687001
0.067093588 0.08324381 0.23200001 13884380
0.067697875 0.08324381 0.23200001 13884380
0.068302169 0.08324381 0.23200001 13818587
0.068609454 0.082884997 0.23100001 13818333
0.06921114 0.082884997 0.23100001 13686747
0.069812827 0.082884997 0.23100001 13752794
0.070414513 0.082884997 0.23100001 13423829
0.071016207 0.082884997 0.23100001 13358036
0.071617894 0.082884997 0.23100001 13555415
0.07221958 0.082884997 0.23100001 13555415
0.072821267 0.082884997 0.23100001 13687001
0.073422961 0.082884997 0.23100001 13752794
0.07402464 0.082884997 0.23100001 13818587
0.074626334 0.082884997 0.23100001 14543341
0.075228021 0.082884997 0.23100001 14412787
0.075829707 0.082884997 0.23100001 14215410
0.076431401 0.082884997 0.23100001 13952238
0.07703308 0.082884997 0.23100001 14281203
0.077634774 0.082884997 0.23100001 14215410
0.077897772 0.082526185 0.23 14018031
0.078496858 0.082526185 0.23 14018031
0.079095937 0.082526185 0.23 13886445
0.079695024 0.082526185 0.23 14017261
0.080294102 0.082526185 0.23 14148847
0.080893189 0.082526185 0.23 14214638
0.081492275 0.082526185 0.23 14346224
0.082091354 0.082526185 0.23 14412017
0.08233092 0.08216738 0.22900002 14148845
0.082927398 0.08216738 0.22900002 14083052
0.083523877 0.08216738 0.22900002 14214638
0.084120356 0.08216738 0.22900002 14214638
0.084716834 0.08216738 0.22900002 13951466
0.08531332 0.08216738 0.22900002 14214124
0.085909791 0.08216738 0.22900002 14477298
0.086506277 0.08216738 0.22900002 14412789
0.087102748 0.08216738 0.22900002 14213872
0.087699227 0.08216738 0.22900002 14279665
0.088295706 0.08216738 0.22900002 14542837
0.088892184 0.08216738 0.22900002 14214386
0.089488663 0.08216738 0.22900002 14082025
0.090085141 0.08216738 0.22900002 14279404
0.090285636 0.081808574 0.22800002 14542576
0.090879507 0.081808574 0.22800002 14412017
0.091473378 0.081808574 0.22800002 14214640
0.092067249 0.081808574 0.22800002 14148847
0.092661127 0.081808574 0.22800002 14281203
0.093254998 0.081808574 0.22800002 14281203
0.093848877 0.081808574 0.22800002 13820652
0.094442748 0.081808574 0.22800002 13951206
0.095036618 0.081808574 0.22800002 14213863
0.095630497 0.081808574 0.22800002 14148070
0.096224368 0.081808574 0.22800002 14082277
0.096818246 0.081808574 0.22800002 14411244
0.097412117 0.081808574 0.22800002 14280171
0.098005995 0.081808574 0.22800002 14149099
0.098599866 0.081808574 0.22800002 14280171
0.099193737 0.081808574 0.22800002 14214378
0.099349946 0.081449762 0.22700001 14609136
0.099941216 0.081449762 0.22700001 14017259
0.10053249 0.081449762 0.22700001 14148845
0.10112375 0.081449762 0.22700001 14412787
0.10171503 0.081449762 0.22700001 14346994
0.10230629 0.081449762 0.22700001 13952236
0.10289756 0.081449762 0.22700001 13951466
-0.15371083 0.093967706 0.26000002 10594215
-0.1530336 0.093967706 0.26000002 10660008
-0.15235637 0.093967706 0.26000002 10594215
-0.15109576 0.093606286 0.259 10725801
-0.15042114 0.093606286 0.259 10791594
-0.14974652 0.093606286 0.259 10725801
-0.14849634 0.093244873 0.25800002 10660008
-0.14782433 0.093244873 0.25800002 10594728
-0.1471523 0.093244873 0.25800002 10594728
-0.14648031 0.093244873 0.25800002 10594728
-0.14524312 0.092883453 0.257 10528935
-0.14457372 0.092883453 0.257 10463142
-0.1439043 0.092883453 0.257 10265763
-0.14323489 0.092883453 0.257 10331556
-0.14256549 0.092883453 0.257 10463142
-0.14189607 0.092883453 0.257 10528935
-0.14122666 0.092883453 0.257 10528935
-0.14055724 0.092883453 0.257 10463142
-0.13988784 0.092883453 0.257 10265763
-0.13921843 0.092883453 0.257 10463142
-0.13854901 0.092883453 0.257 10528935
-0.13787961 0.092883453 0.257 10528935
-0.13721021 0.092883453 0.257 10528422
-0.1365408 0.092883453 0.257 10331043
-0.13587138 0.092883453 0.257 10331043
-0.13520196 0.092883453 0.257 10199970
-0.13453256 0.092883453 0.257 10331556
-0.13386315 0.092883453 0.257 10396834
-0.13319375 0.092883453 0.257 10331041
-0.13252433 0.092883453 0.257 10396834
-0.13185491 0.092883453 0.257 10265248
-0.13118552 0.092883453 0.257 10265248
-0.1305161 0.092883453 0.257 10133662
-0.12984669 0.092883453 0.257 10133662
-0.12917727 0.092883453 0.257 10330524
-0.12800783 0.092522047 0.25600001 10330524
-0.12734103 0.092522047 0.25600001 10264731
-0.12667423 0.092522047 0.25600001 10330271
