# .PCD v0.7 - Point Cloud Data file format
VERSION 0.7
FIELDS x y z rgb
SIZE 4 4 4 4
TYPE F F F U
COUNT 1 1 1 1
WIDTH 1165
HEIGHT 1
VIEWPOINT 0 0 0 1 0 0 0
POINTS 1165
DATA ascii
0.56868953 -0.68895632 1.804 4282065184
0.68517238 -0.66171908 1.7589999 4285027149
0.53776377 -0.68895632 1.804 4283055405
0.53850001 -0.6821 1.795 4283319344
0.65163428 -0.66173708 1.768 4284897625
-0.2670857 -0.38434279 1.368 4284832341
0.50340188 -0.68552011 1.804 4283646496
-0.44943139 -0.1153571 0.96899998 4282135849
0.46472949 -0.68932009 1.814 4283517230
0.52366477 -0.66173708 1.768 4283714613
-0.53874582 -0.1181705 0.97700012 4282202670
0.37969911 -0.68895632 1.804 4283713839
0.5068267 -0.66173708 1.768 4283516985
-0.55516088 -0.1188962 0.98299998 4280955945
0.35761711 -0.68932009 1.814 4283844660
0.47988579 -0.66173708 1.768 4283516714
0.30233341 -0.68932009 1.814 4283581746
0.44957721 -0.66173708 1.768 4283385131
-0.47762859 -0.38864571 1.374 4284569679
0.28851241 -0.68932009 1.814 4283384878
0.25471899 -0.6855191 1.795 4283186997
0.41590101 -0.66173708 1.768 4283714615
-0.50941712 -0.38694859 1.368 4284766047
0.26630479 -0.68895632 1.804 4283318583
0.23741721 -0.66510481 1.768 4283253537
-0.68921143 -0.38955429 1.368 4284896590
0.088108577 -0.68932009 1.814 4282989875
0.2071086 -0.66173708 1.768 4283252786
-0.71784669 -0.38813049 1.363 4284896082
0.056697149 -0.68895632 1.804 4282530308
0.1666972 -0.66510481 1.768 4283186225
-0.74914289 -0.38955429 1.368 4284372290
0.001737143 -0.68964583 1.824 4282726694
-0.01900381 -0.68932009 1.814 4282464808
-0.042952381 -0.68895632 1.804 4280952606
0.021889521 -0.66173708 1.768 4282990095
-0.14684761 -0.68932009 1.814 4281806362
-0.1814 -0.68932009 1.814 4281805088
-0.1195505 -0.66173708 1.768 4282003246
-0.088050477 -0.62530762 1.567 4281676339
-0.269741 -0.68895632 1.804 4281014790
0.72452569 -0.32955429 1.296 4283911232
-0.1229181 -0.66173708 1.768 4282068787
-0.097438097 -0.62810099 1.574 4281741862
-0.29723051 -0.68895632 1.804 4281477144
-0.3281562 -0.68552011 1.804 4281936671
-0.35564569 -0.68895632 1.804 4281542682
-0.35729051 -0.6855191 1.795 4281476892
0.63810962 -0.32834771 1.301 4283843634
-0.23741721 -0.66173708 1.768 4281411601
-0.38313529 -0.68895632 1.804 4281739538
-0.38806191 -0.6855191 1.795 4281739521
0.62571907 -0.32834771 1.301 4283846214
-0.26772571 -0.66173708 1.768 4281740073
-0.41749719 -0.68895632 1.804 4281674274
0.59862858 -0.32955429 1.296 4283846208
-0.29129899 -0.66173708 1.768 4281740827
-0.44155049 -0.68895632 1.804 4281609489
-0.44960481 -0.6855191 1.795 4281609237
0.56900573 -0.3270857 1.296 4283845697
-0.32160759 -0.66173708 1.768 4282331430
-0.47855049 -0.68932009 1.814 4281608987
-0.4769572 -0.6821 1.795 4281675287
0.47703341 -0.32834771 1.301 4283649089
-0.41926861 -0.66510481 1.768 4281871390
-0.56868953 -0.68895632 1.804 4281871128
-0.1195667 0.15016671 0.59500003 4283251247
0.79262578 -0.41582581 1.413 4283779649
0.43076569 -0.32955429 1.296 4283781449
-0.44957721 -0.66510481 1.768 4282003999
-0.59274292 -0.68895632 1.804 4282200353
-0.14903329 0.15016671 0.59500003 4282529332
0.77647722 -0.41582581 1.413 4283780152
-0.62739527 -0.6855191 1.795 4282331147
-0.15986191 0.1685324 0.56900001 4282396935
0.74637997 -0.41406 1.4069999 4283649581
-0.65474772 -0.6855191 1.795 4282529567
-0.2093486 0.16931809 0.56800002 4293388013
0.71690011 -0.40869999 1.4069999 4283451190
0.20859431 -0.32955429 1.296 4284108879
-0.68867809 -0.67184007 1.768 4282726193
0.68949997 -0.39531341 1.3789999 4283715131
0.17897139 -0.32955429 1.296 4283321406
-0.71561909 -0.67520767 1.768 4282857510
0.1127533 -0.32834771 1.301 4283911501
-0.77623618 -0.67184007 1.768 4283447847
0.033094291 -0.3297171 1.2869999 4283911760
-0.82641149 -0.66145909 1.732 4283120436
0.48909149 -0.47761711 1.506 4283846199
-0.89747047 -0.67520767 1.768 4283120432
0.47936669 -0.39006001 1.3789999 4283977275
-0.92441148 -0.67520767 1.768 4282923057
-0.95837343 -0.65815997 1.732 4282923825
0.81886202 -0.68893808 1.795 4284437831
0.80860478 -0.6855191 1.795 4284503368
-0.1492857 -0.098619051 0.94999999 4283256127
0.76415718 -0.68893808 1.795 4284110162
0.87589723 -0.66145909 1.732 4284437845
-0.1797391 -0.1012743 0.95800012 4283842865
0.74706191 -0.68893808 1.795 4284307015
-0.27280191 -0.097624756 0.95800012 4281940545
-0.2097829 -0.090925723 0.62400001 4287991832
0.62055713 -0.68893808 1.795 4284306501
0.52982849 -0.70006859 1.824 4283252521
-0.3732143 -0.41935721 1.425 4284568658
0.1792286 0.2103143 0.51000011 4281347370
0.20671999 -0.70006859 1.824 4282989365
0.1067886 0.2101638 0.51200002 4281213449
0.1476572 -0.70006859 1.824 4282859058
0.088885717 0.2103143 0.51000011 4281741094
0.1198629 -0.70006859 1.824 4282990637
-0.1476572 -0.70006859 1.824 4281477901
-0.1650286 -0.70006859 1.824 4281674001
-0.41883329 -0.6821 1.795 4281674783
-0.56243342 -0.68893808 1.795 4281739029
-0.119761 0.1674486 0.56900001 4282726180
0.78390002 -0.41406 1.4069999 4283779649
-0.66842377 -0.68893808 1.795 4282529578
-0.23898 0.1674486 0.56900001 4292991174
0.6767 -0.40601999 1.4069999 4283780157
-0.71970952 -0.6855191 1.795 4282594586
-0.26932669 0.1631133 0.56900001 4281610546
0.65793997 -0.40869999 1.4069999 4284371525
-0.86716199 -0.67520767 1.768 4283186488
-0.85305238 -0.68893808 1.795 4282988854
0.50786012 -0.40869999 1.4069999 4284107320
-0.96497148 -0.66475809 1.732 4282463786
0.3370733 -0.4788467 1.5190001 4281749423
-0.2098324 -0.119501 0.98799998 4282924601
0.71988201 -0.68895632 1.804 4284504395
0.86716199 -0.68194288 1.768 4284305986
0.71744013 -0.70354289 1.824 4284371789
-0.238061 -0.1213829 0.98799998 4282333229
0.68964583 -0.70006859 1.824 4284372029
-0.30769151 -0.1213829 0.98799998 4282006333
0.59961528 -0.69582862 1.804 4284175444
-0.31218001 -0.41759139 1.419 4284372819
0.50898278 -0.70354289 1.824 4283319847
-0.4185172 -0.41582581 1.413 4284438088
0.47424001 -0.70006859 1.824 4283515697
-0.44191721 -0.41759139 1.419 4284174666
0.2699486 0.2102914 0.52200001 4282335257
0.29705149 -0.70354289 1.824 4283385137
0.23988859 0.2135057 0.51300001 4281872412
0.2588343 -0.70006859 1.824 4283120675
0.2056886 0.2105743 0.51300001 4281872167
0.23798861 -0.70354289 1.824 4282924327
-0.68765998 -0.4185172 1.413 4284567374
0.1491143 0.2112857 0.51000011 4282003248
0.17892569 -0.70354289 1.824 4282990380
0.05100001 0.2112857 0.51000011 4281936169
0.067748569 -0.70354289 1.824 4282791725
0.057325721 -0.70354289 1.824 4282332962
-0.02768572 0.2103143 0.51000011 4281280552
0.026057141 -0.70354289 1.824 4282332966
-0.05974286 0.2103143 0.51000011 4281215247
-0.022582861 -0.70354289 1.824 4282071090
-0.036279999 -0.69968581 1.814 4282332970
-0.1024914 -0.70354289 1.824 4281740582
-0.20671999 -0.70354289 1.824 4280819470
-0.23798861 -0.70354289 1.824 4280424975
-0.3248457 -0.70354289 1.824 4281476370
-0.35958859 -0.70354289 1.824 4281214222
-0.3804343 -0.70354289 1.824 4281542417
-0.43949711 -0.70006859 1.824 4281543445
-0.47424001 -0.70354289 1.824 4281344539
-0.72312862 -0.68893808 1.795 4282594329
-0.2985895 0.1717838 0.56900001 4281607205
0.62845999 -0.40869999 1.4069999 4284042557
-0.76073807 -0.68893808 1.795 4283053869
-0.31051141 0.1717838 0.56900001 4281215002
0.59094 -0.40869999 1.4069999 4284042572
-0.80860478 -0.68893808 1.795 4282792251
0.56950003 -0.40334001 1.4069999 4283976777
0.05751428 -0.35914469 1.342 4283846456
-0.83253813 -0.69235718 1.795 4282726189
-0.89980388 -0.68888581 1.786 4282858543
0.47837999 -0.40869999 1.4069999 4283911993
-0.92701912 -0.68888581 1.786 4282726705
0.44890001 -0.40869999 1.4069999 4284174124
1.027933 -0.70314097 1.814 4284175179
0.1195219 -0.095799997 0.95800012 4284502856
1.008665 -0.68548387 1.786 4284110145
0.98839623 -0.68194288 1.768 4283978812
0.080113336 -0.38743341 1.3789999 4283846462
0.088500947 -0.097624756 0.95800012 4283845698
0.97988862 -0.68879902 1.777 4283846459
0.80922288 -0.68895632 1.804 4284568902
0.95472002 -0.68531048 1.768 4283846212
0.053846668 -0.38743341 1.3789999 4283715654
0.05748 -0.095799997 0.95800012 4284239939
0.95958 -0.68202949 1.777 4284174406
0.01551048 -0.097624756 0.95800012 4283452735
0.9291172 -0.68879902 1.777 4284175432
0.92777908 -0.68194288 1.768 4284175429
0.87834579 -0.68879902 1.777 4284306244
0.85647148 -0.68893808 1.795 4284502593
-0.2493524 -0.1213829 0.98799998 4282332448
0.65490288 -0.70354289 1.824 4284240445
-0.2494029 -0.41839719 1.431 4284765521
-0.239161 -0.1192867 0.61699998 4291279668
0.58636671 -0.68893808 1.795 4282595896
-0.3284429 -0.38911909 1.385 4284635209
-0.24112 -0.11792 0.61600012 4291147320
0.56927139 -0.67868102 1.795 4283447856
-0.331081 -0.38911909 1.385 4284372548
0.50726378 -0.71438187 1.8430001 4283122208
-0.53916568 -0.1270286 0.98799998 4282332709
0.38738289 -0.70006859 1.824 4283975988
-0.5315572 -0.4185172 1.413 4284635225
-0.55798483 -0.1289105 0.98799998 4282401832
0.35958859 -0.70701718 1.824 4283384890
-0.56654572 -0.41582581 1.413 4284634195
0.14568479 -0.71438187 1.8430001 4283055412
0.1147095 -0.71825808 1.853 4282924583
0.0088238101 -0.71825808 1.853 4282397477
-0.033168569 -0.71050572 1.8329999 4282332712
-0.1464752 -0.71825808 1.853 4281281045
-0.178241 -0.71825808 1.853 4281212436
-0.2029476 -0.71825808 1.853 4280687113
-0.2194048 -0.71438187 1.8430001 4280555534
-0.31769809 -0.71438187 1.8430001 4280032536
-0.71396577 -0.70701718 1.824 4282396969
-0.26983529 0.14547139 0.59899998 4281542410
0.65828288 -0.42836279 1.437 4283977275
0.070295237 -0.35914469 1.342 4284043334
-0.80176669 -0.69235718 1.795 4282660149
-0.95958 -0.68879902 1.777 4282135344
0.4196476 -0.3931714 1.39 4284174127
-0.95808768 -0.68531048 1.768 4282331439
-0.17972191 -0.119501 0.98799998 4282662973
0.72331822 -0.68895632 1.804 4284438342
0.89747047 -0.68867809 1.768 4284044107
0.83903998 -0.71049148 1.824 4284700231
0.7799772 -0.71049148 1.824 4284568620
0.8667286 -0.69577622 1.795 4284371779
-0.20824289 -0.14044289 1.017 4282201383
0.71087152 -0.71789241 1.8430001 4284174410
0.83937621 -0.69235718 1.795 4284241212
-0.2392372 -0.1385057 1.017 4282006059
0.68980849 -0.71438187 1.8430001 4284370748
0.79150951 -0.69235718 1.795 4284438333
-0.26635721 -0.13656861 1.017 4282333473
0.65821427 -0.71789241 1.8430001 4284108593
-0.29451811 -0.1213829 0.98799998 4282464556
0.62710857 -0.70701718 1.824 4284110671
-0.2986657 -0.41759139 1.419 4284503893
-0.47944289 -0.14238 1.017 4282464297
0.4464848 -0.71825808 1.853 4283383863
0.59662378 -0.69577622 1.795 4284438091
-0.3283 -0.41137999 1.4069999 4284307018
0.54531151 -0.71825808 1.853 4282461981
0.53825241 -0.71825808 1.853 4282923548
-0.53949428 -0.14819141 1.017 4282267445
0.38790759 -0.71438187 1.8430001 4283582269
0.30080289 0.1806962 0.56300002 4283649072
0.35118759 -0.72178757 1.853 4283514930
-0.56074572 -0.44943139 1.461 4284569164
-0.56855148 -0.1462543 1.017 4282530363
0.35982379 -0.71789241 1.8430001 4283187764
0.27896759 0.21209531 0.52399999 4282724633
0.3248457 -0.71049148 1.824 4283187251
-0.57165432 -0.41759139 1.419 4284568924
-0.57048857 -0.1462543 1.017 4282464313
0.3247191 -0.71789241 1.8430001 4283121974
0.26647899 -0.71825808 1.853 4283252778
0.26910001 0.00078000012 0.81900012 4283780422
-0.62143719 -0.33707139 1.2869999 4284633937
0.2135362 -0.71825808 1.853 4283187002
-0.65820861 -0.33707139 1.2869999 4284633670
0.20916191 0.18056761 0.55600011 4282134557
0.2311838 -0.72178757 1.853 4283252275
-0.67761427 -0.4475857 1.455 4284108880
0.1791857 0.1802429 0.55500001 4283252281
0.2029476 -0.72178757 1.853 4282989353
-0.70810002 -0.4475857 1.455 4284174146
0.2064772 -0.71825808 1.853 4283120687
-0.68762571 -0.33462 1.2869999 4284174405
0.1711819 -0.71825808 1.853 4282925360
-0.71949428 -0.33462 1.2869999 4284240463
0.06845428 -0.71789241 1.8430001 4282595367
0.05441238 -0.71789241 1.8430001 4282332718
-0.026328569 -0.71789241 1.8430001 4282070027
-0.11118 -0.71825808 1.853 4281413416
-0.1217686 -0.72178757 1.853 4281282339
-0.29705149 -0.70354289 1.824 4281015568
-0.3528029 -0.71438187 1.8430001 4281212940
-0.38439709 -0.71789241 1.8430001 4281082884
-0.4186514 -0.70701718 1.824 4281149722
-0.4464848 -0.71825808 1.853 4281280271
-0.46060291 -0.71825808 1.853 4281280278
-0.48466289 -0.71049148 1.824 4281411090
-0.62710857 -0.70701718 1.824 4281805597
-0.17855909 0.14661241 0.59899998 4281542428
0.74587148 -0.43110001 1.437 4283910987
-0.65837717 -0.71049148 1.824 4281870375
-0.2082238 0.1477533 0.59899998 4281675319
0.70755142 -0.43110001 1.437 4283845695
-0.74523431 -0.71049148 1.824 4282594087
-0.29949999 0.1431895 0.59899998 4280820753
0.6254372 -0.42562571 1.437 4283647802
-0.76287723 -0.71399719 1.8329999 4282331942
-0.3295505 0.1238057 0.62800002 4280884994
0.59970582 -0.44943139 1.461 4284108106
-0.76955432 -0.71049148 1.824 4282200357
-0.32574189 0.1477533 0.59899998 4281673474
0.59806567 -0.42562571 1.437 4284239930
-0.89749998 -0.69577622 1.795 4282726191
-0.92827147 -0.69919533 1.795 4282332201
-0.98502862 -0.68531048 1.768 4282463527
0.1462543 -0.13656861 1.017 4284437327
1.0387 -0.71748859 1.8329999 4284109897
0.87460291 -0.71748859 1.8329999 4283979335
0.86683428 -0.71396577 1.824 4283848009
1.013748 -0.69235718 1.795 4284109635
0.11926 -0.40601999 1.4069999 4284043848
0.86412859 -0.71748859 1.8329999 4284306758
0.98981428 -0.69919533 1.795 4283912006
0.089780003 -0.40869999 1.4069999 4283780662
0.83619708 -0.71399719 1.8329999 4284241482
0.80777138 -0.71396577 1.824 4284371774
0.95904291 -0.69919533 1.795 4284174404
0.05762 -0.40869999 1.4069999 4283780421
0.79779142 -0.71748859 1.8329999 4284044616
0.89747047 -0.69204569 1.768 4284175694
-0.1646667 -0.1213829 0.98799998 4283253825
0.74870861 -0.70701718 1.824 4284766018
0.77783328 -0.69235718 1.795 4284437832
-0.2992886 -0.14044289 1.017 4282528298
0.62671143 -0.71399719 1.8329999 4284175175
0.45001429 -0.71825808 1.853 4283253044
0.60004288 -0.69577622 1.795 4284634440
-0.29881999 -0.40869999 1.4069999 4284700227
-0.47839329 -0.1188962 0.98299998 4282266418
0.44842291 -0.68552011 1.804 4283515950
-0.2366972 -0.1050095 0.59600002 4289701889
0.57417911 -0.68867809 1.768 4283322443
-0.3138867 -0.38743341 1.3789999 4284635224
-0.5049333 -0.1185333 0.98000002 4282265886
0.41406101 -0.68552011 1.804 4283516978
-0.25272101 -0.1043971 0.59899998 4287069223
0.56744379 -0.68867809 1.768 4281874255
-0.35591331 -0.38743341 1.3789999 4284634956
-0.2474886 -0.71789241 1.8430001 4280163608
-0.28259331 -0.71789241 1.8430001 4279438851
-0.49673241 -0.70736092 1.8430001 4281542419
-0.59931427 -0.71049148 1.824 4281345305
-0.1488943 0.14661241 0.59899998 4283450171
0.77871722 -0.43383709 1.437 4283516995
-0.59877998 -0.71748859 1.8329999 4280886033
-0.1491629 0.126399 0.62900001 4282727727
0.75276291 -0.44943139 1.461 4283780171
-0.62671143 -0.71399719 1.8329999 4281608218
-0.17911521 0.1275972 0.62900001 4281743158
0.74719721 -0.44943139 1.461 4283712842
-0.65813428 -0.71748859 1.8329999 4281673505
-0.2090676 0.125201 0.62900001 4281674009
0.71936858 -0.44943139 1.461 4283515954
-0.68606567 -0.71748859 1.8329999 4281739802
-0.23902 0.1240029 0.62900001 4281740043
0.68875718 -0.44943139 1.461 4283780163
-0.68617147 -0.71396577 1.824 4281738530
-0.2397695 0.14636759 0.59799999 4281347621
0.68839139 -0.43383709 1.437 4284173624
-0.71748859 -0.71399719 1.8329999 4282200102
-0.2689724 0.125201 0.62900001 4281674017
0.65805429 -0.44568861 1.467 4283648326
-0.73895532 -0.71789241 1.8430001 4282200358
-0.29772669 0.125201 0.62900001 4280950807
0.62196863 -0.4466486 1.461 4283845448
-0.78382581 -0.71748859 1.8329999 4282134059
-0.35954291 0.1337143 0.62400001 4279966995
0.55466568 -0.4484829 1.467 4283977305
-0.83270568 -0.71748859 1.8329999 4282462767
-0.36184761 0.13098291 0.62800002 4280752655
0.52392858 -0.4484829 1.467 4283912262
0.1996029 -0.1220143 0.65700001 4288324295
1.012754 -0.71396577 1.824 4284043852
0.77684289 -0.71748859 1.8329999 4284634699
0.92701912 -0.69909149 1.786 4283979328
0.028139999 -0.40869999 1.4069999 4283845980
-0.1791857 -0.1385057 1.017 4283318311
0.7489115 -0.71748859 1.8329999 4284437325
0.894081 -0.70603329 1.795 4284569153
0.77120101 -0.72531712 1.853 4284108869
0.7429648 -0.72884673 1.853 4284175171
0.71825808 -0.72531712 1.853 4284239942
-0.3562533 -0.1796667 1.0779999 4284174408
0.56394672 -0.74890667 1.904 4281408781
-0.3296943 -0.36818001 1.347 4284832592
-0.58987433 -0.17067429 1.048 4283978057
0.32817999 -0.74064672 1.883 4283056166
-0.019726669 -0.74064672 1.883 4282200359
0.1115286 0.1844714 0.55500001 4282265626
0.1288276 -0.72178757 1.853 4282859316
0.20932481 -0.071524762 0.68900001 4285624192
-0.77921999 -0.44664291 1.443 4283977036
-0.027057139 -0.74497342 1.8940001 4282135335
0.087214291 0.1802429 0.55500001 4283646508
0.118239 -0.72178757 1.853 4282466357
0.17914 -0.06102572 0.68900001 4281489244
-0.80730009 -0.44850001 1.449 4283714103
-0.030664761 -0.74497342 1.8940001 4282070320
-0.17754 -0.74064672 1.883 4280623374
-0.2349267 -0.74064672 1.883 4280950542
-0.2408143 -0.73671341 1.873 4281017351
-0.26925719 -0.71396577 1.824 4279504390
-0.48269051 -0.7249133 1.8430001 4281082385
-0.4497 -0.61530381 1.499 4285825406
-0.56804568 -0.71396577 1.824 4280687369
-0.1190305 0.1486457 0.59799999 4282923822
0.80608863 -0.43657431 1.437 4283715389
0.112119 -0.38911909 1.385 4283714885
-0.77826011 -0.72884673 1.853 4282068267
0.59937441 -0.4512772 1.467 4284304717
-0.80777138 -0.71396577 1.824 4282397230
-0.33546859 0.14991429 0.59399998 4281213721
0.56795722 -0.42562571 1.437 4283977037
-0.83903998 -0.71744013 1.824 4282265648
0.53784859 -0.42836279 1.437 4283846465
-0.86683428 -0.71744013 1.824 4282266417
0.50774002 -0.43110001 1.437 4283453252
-0.89115429 -0.71396577 1.824 4282398513
0.47763139 -0.42836279 1.437 4283977534
-0.92937148 -0.71744013 1.824 4282003501
0.44752291 -0.42836279 1.437 4284109882
0.1510267 -0.1272133 0.65800011 4285427075
0.9899258 -0.71005148 1.814 4283977796
0.13723999 -0.1497733 0.65800011 4286480020
0.9484629 -0.71696198 1.814 4284437571
0.912 -0.71744013 1.824 4284438083
0.88073152 -0.71744013 1.824 4284372040
-0.058204759 -0.1787229 0.71899998 4290369491
0.7765134 -0.74423343 1.883 4284502587
-0.23854481 -0.16268951 1.048 4282990907
0.67250007 -0.74423343 1.883 4284437323
-0.2984305 -0.1606933 1.048 4283186746
0.62987143 -0.7363286 1.863 4284438609
0.68649238 -0.72178757 1.853 4284239927
0.53573138 -0.74858087 1.8940001 4282529819
-0.35791719 -0.36818001 1.347 4284504654
0.53979337 -0.73706013 1.883 4282594586
0.65472668 -0.72531712 1.853 4284108879
-0.26964861 -0.4484829 1.467 4284175444
0.48161721 -0.74858087 1.8940001 4283383599
-0.38613999 -0.36818001 1.347 4284700494
0.47882 -0.74064672 1.883 4283253296
0.62649047 -0.72884673 1.853 4284307024
-0.29200289 -0.4484829 1.467 4284109125
0.47800949 -0.74858087 1.8940001 4283383600
-0.4194943 -0.37074569 1.347 4284699985
0.4491486 -0.74858087 1.8940001 4283383869
-0.44771719 -0.37074569 1.347 4284569151
-0.53597718 -0.1646857 1.048 4282925121
0.38915339 -0.74423343 1.883 4283581734
0.52766383 -0.72178757 1.853 4282922788
-0.3882086 -0.4466486 1.461 4284108875
-0.53806859 -0.178 1.068 4284174925
0.38421139 -0.74858087 1.8940001 4283319607
-0.50929427 -0.37074569 1.347 4284569682
-0.56991237 -0.17067429 1.048 4284108625
0.33893999 -0.74423343 1.883 4283319088
0.50648671 -0.72178757 1.853 4283122211
-0.41881999 -0.4466486 1.461 4283912770
-0.56848001 -0.17936 1.064 4284174152
0.3589581 -0.74858087 1.8940001 4282924847
-0.53751719 -0.37074569 1.347 4284372314
0.47472101 -0.72178757 1.853 4283253295
-0.42995149 -0.44943139 1.461 4284567110
-0.59719151 -0.1788543 1.061 4283977794
0.32648951 -0.74858087 1.8940001 4283186993
-0.56830579 -0.3758772 1.347 4284306497
0.29041329 -0.74858087 1.8940001 4283253041
-0.58626568 -0.3758772 1.347 4284503110
-0.53561997 -0.1501286 1.017 4282463782
0.38648289 -0.72178757 1.853 4283385400
-0.53957999 -0.44574001 1.449 4284371785
-0.1843895 0.0006561905 0.68900001 4281025936
0.2399067 -0.74858087 1.8940001 4283384620
-0.65297431 -0.37331149 1.347 4284108877
-0.2099334 0.01065333 0.65800011 4278917715
0.2349267 -0.74423343 1.883 4283580722
-0.23875999 0.02444 0.65800011 4281677117
0.20982 -0.74423343 1.883 4283185718
-0.26508 0.01692 0.65800011 4278454837
0.17754 -0.74423343 1.883 4283055915
-0.26830289 0.029811431 0.66600001 4279635758
0.17496949 -0.74858087 1.8940001 4283121446
-0.71968287 -0.3758772 1.347 4284437836
-0.2701095 0.0131 0.65499997 4281414695
0.1488467 -0.74064672 1.883 4282794025
0.148261 0.18202861 0.55400002 4282199086
0.17471141 -0.72178757 1.853 4283055413
0.2237609 -0.089898087 0.68900001 4285755770
-0.74898583 -0.44664291 1.443 4284175180
0.0054114289 -0.74858087 1.8940001 4282068776
-0.1165667 -0.74423343 1.883 4281806369
-0.0037 0.1802429 0.55500001 4283189296
0.0052942862 -0.72178757 1.853 4282266922
-0.1497162 -0.74858087 1.8940001 4281018393
-0.078389533 -0.62859517 1.553 4282927188
-0.059190478 0.18071429 0.55000001 4282266425
-0.02647143 -0.72531712 1.853 4282135577
-0.16053911 -0.74858087 1.8940001 4281018128
-0.08584667 0.1806467 0.55299997 4282924337
-0.033349529 -0.7249133 1.8430001 4282070586
-0.2038305 -0.74858087 1.8940001 4280292617
-0.20623329 -0.74423343 1.883 4280554760
-0.22908381 -0.74858087 1.8940001 4280819994
-0.1401114 0.18104289 0.551 4282727469
-0.118239 -0.72178757 1.853 4281413411
-0.2471219 -0.74858087 1.8940001 4281147660
-0.32288191 -0.74858087 1.8940001 4281213202
-0.3497 -0.74064672 1.883 4280886297
-0.3589581 -0.74858087 1.8940001 4281149199
-0.37699619 -0.74858087 1.8940001 4280951584
-0.38198 -0.74423343 1.883 4281540629
-0.65825617 -0.73237622 1.853 4281476373
0.71952862 -0.45407149 1.467 4284106809
0.68879151 -0.4512772 1.467 4283713596
-0.71825808 -0.73237622 1.853 4281740564
0.6440829 -0.4512772 1.467 4283779136
-0.74649429 -0.72531712 1.853 4282200354
0.62731719 -0.4512772 1.467 4283978058
-0.95537341 -0.71696198 1.814 4282134570
-0.95904291 -0.70945239 1.795 4282133803
-0.98981428 -0.70945239 1.795 4281872176
1.050033 -0.73590571 1.853 4283187756
0.1774372 -0.4484829 1.467 4283780163
0.8064962 -0.73590571 1.853 4284371780
0.058848571 -0.43110001 1.437 4283387200
0.80879343 -0.74782002 1.883 4284439102
0.88768011 -0.7209143 1.824 4284503886
-0.179621 -0.15977331 1.0420001 4282989118
-0.076008573 -0.17735329 0.71899998 4290230734
0.74782002 -0.74782002 1.883 4284175428
-0.2066057 -0.1606933 1.048 4283055156
0.71554011 -0.74782002 1.883 4284437328
-0.2684876 -0.1606933 1.048 4282858027
0.65456671 -0.74782002 1.883 4284503619
-0.3363581 -0.1606933 1.048 4282070843
0.56489998 -0.74782002 1.883 4280556059
0.50751328 -0.74782002 1.883 4283185195
-0.47793999 -0.1612924 1.039 4282663231
0.4393667 -0.74064672 1.883 4283450155
0.1165667 -0.74782002 1.883 4282596918
-0.027357141 -0.76052862 1.915 4281938201
-0.0383 -0.76052862 1.915 4282135085
-0.1345 -0.74782002 1.883 4281739553
-0.1732619 -0.76052862 1.915 4280754190
-0.20973811 -0.76052862 1.915 4280489224
-0.32817999 -0.74064672 1.883 4281016866
-0.40349999 -0.74782002 1.883 4281082631
-0.44654 -0.74782002 1.883 4281148185
-0.48341241 -0.74384862 1.873 4280885265
-0.44588101 -0.62888098 1.525 4284962649
-0.059533339 0.10716 0.65800011 4282923054
0.8408677 -0.47825241 1.499 4284108858
0.088376187 -0.38911909 1.385 4283912773
-0.8064962 -0.73590571 1.853 4282068255
0.5630486 -0.4512772 1.467 4284173897
0.02758 -0.38218001 1.3789999 4284175174
-0.85641152 -0.7209143 1.824 4282331426
-0.43755531 0.035793331 0.76700002 4282003492
0.47784671 -0.53891331 1.603 4284766037
-0.92937148 -0.7209143 1.824 4282002726
0.41800001 -0.53960001 1.596 4284832341
-0.98790479 -0.71644568 1.804 4282001706
-1.000072 -0.71287137 1.795 4282002725
0.1606933 -0.1606933 1.048 4283978820
1.0670331 -0.74423343 1.883 4283450935
1.056273 -0.75140673 1.883 4283252521
0.1784524 -0.4753972 1.499 4283648576
0.92650002 -0.73590571 1.853 4284503369
0.0069571431 -0.4466486 1.461 4283779652
0.88767523 -0.73943532 1.853 4284897087
-0.2096857 -0.17900001 1.074 4283913030
-0.1018705 -0.1788076 0.74800003 4282403860
0.69813329 -0.74890667 1.904 4284175166
0.86649811 -0.73237622 1.853 4284503616
0.56109709 -0.71049148 1.824 4280687881
-0.35812861 -0.41759139 1.419 4284437838
-0.32750669 -0.18377329 1.0779999 4284110160
0.5708524 -0.76417619 1.915 4280622362
-0.32845151 -0.47761711 1.506 4283911232
0.47236669 -0.76417619 1.915 4283252000
0.32171431 0.15028571 0.60000002 4283978315
-0.56980002 -0.18787999 1.0779999 4284240454
0.35929051 -0.76417619 1.915 4283252533
0.02331333 -0.74782002 1.883 4280752404
0.0091190478 -0.76417619 1.915 4281476627
-0.23527139 -0.76417619 1.915 4281212431
-0.2608048 -0.76417619 1.915 4280359433
-0.3949286 -0.71789241 1.8430001 4281279251
-0.43953809 -0.76417619 1.915 4281081882
-0.46805999 -0.74782002 1.883 4280885784
-0.41973811 -0.61435717 1.525 4282398783
-0.65822572 -0.74741632 1.873 4281411602
-0.20868 0.10716 0.65800011 4282068506
0.71809238 -0.4753972 1.499 4283780389
-0.68676668 -0.74741632 1.873 4281805334
-0.23875999 0.1084133 0.65800011 4281411874
0.68954003 -0.4753972 1.499 4283911498
-0.79736292 -0.74741632 1.873 4281674781
-0.35907999 0.10716 0.65800011 4281084193
0.56962001 -0.46968669 1.499 4284174138
0.03825238 -0.38911909 1.385 4283912263
-0.83473241 -0.73943532 1.853 4282003486
0.53789997 -0.4512772 1.467 4283910739
0.02250476 -0.38787621 1.39 4283913283
-0.85590953 -0.73943532 1.853 4282658094
0.49598569 -0.4512772 1.467 4283978569
-0.86871529 -0.74741632 1.873 4282396465
0.50109428 -0.4753972 1.499 4284108349
-0.89826381 -0.73237622 1.853 4282331690
0.4497 -0.4725419 1.499 4283781183
-0.95716578 -0.7243886 1.824 4282003753
0.3876 -0.53656 1.596 4284306515
-0.98843437 -0.72786289 1.824 4281871906
0.3572 -0.53656 1.596 4284504152
-1.0050859 -0.71988201 1.804 4282133800
0.2185114 -0.17126571 0.68900001 4286414723
1.046504 -0.73590571 1.853 4283252527
0.1439057 -0.4484829 1.467 4283451705
0.1447238 -0.1586972 1.048 4284371784
0.2134362 -0.150701 0.71600002 4288126636
1.047096 -0.74741632 1.873 4283580972
0.20932481 -0.16601621 0.68900001 4286743197
1.018268 -0.73943532 1.853 4284176191
0.1187572 -0.4484829 1.467 4283714885
0.1187733 -0.156701 1.048 4283847486
0.20875999 -0.15164 0.71399999 4288447395
1.013117 -0.74697429 1.863 4284241215
0.088830493 -0.1606933 1.048 4283584068
0.98118001 -0.74697429 1.863 4284437316
0.1795028 -0.1795028 0.66600001 4285755792
0.97944289 -0.7429648 1.853 4284306233
0.05888762 -0.1606933 1.048 4283780920
0.12342 -0.1551 0.69300002 4284178537
0.93859708 -0.74697429 1.863 4284306767
0.020959999 -0.1586972 1.048 4283453255
0.92579722 -0.74741632 1.873 4284503373
0.89956278 -0.74342573 1.863 4284635463
0.1824429 -0.1566429 0.64499998 4286988427
1.005806 -0.7209143 1.824 4284306495
0.1108543 -0.43110001 1.437 4283583809
0.86871529 -0.74741632 1.873 4284766019
-0.23627999 -0.17900001 1.074 4284372567
0.68725139 -0.74858087 1.8940001 4284240707
0.83826202 -0.73943532 1.853 4284437574
0.072534293 -0.43110001 1.437 4283385416
0.8330391 -0.74741632 1.873 4284240967
-0.2392133 -0.18172 1.0779999 4284306010
0.68757617 -0.76417619 1.915 4284503112
-0.25769329 -0.18172 1.0779999 4284109386
0.65839517 -0.76782382 1.915 4284503863
0.2102219 -0.02944476 0.71899998 4284307817
-0.26932859 -0.2038448 1.109 4284307788
0.65816659 -0.77183342 1.925 4284570176
0.53802383 -0.76417619 1.915 4282594072
-0.3886914 -0.47761711 1.506 4283977289
0.44683331 -0.76417619 1.915 4283121184
-0.47761711 -0.47761711 1.506 4283780158
-0.53899997 -0.18787999 1.0779999 4284239695
0.38847151 -0.76782382 1.915 4283450417
-0.59459531 -0.2094238 1.105 4284109386
0.3263543 -0.77624381 1.936 4283318316
0.32838571 -0.059471428 0.90499997 4284701524
-0.56867337 -0.39531341 1.3789999 4284766284
0.27599999 0.15028571 0.60000002 4283847472
-0.59854668 -0.18787999 1.0779999 4283910993
0.32281429 -0.76417619 1.915 4283252780
0.26959151 0.15053619 0.60100001 4283452480
-0.6047067 -0.18787999 1.0779999 4283910988
0.297281 -0.76782382 1.915 4283252534
0.1262857 0.1514286 0.60000002 4283911995
0.17690951 -0.76417619 1.915 4283120929
0.144081 -0.76782382 1.915 4282859060
0.1185476 -0.76782382 1.915 4282727725
0.088853337 -0.76341343 1.904 4282529832
0.08787334 -0.74782002 1.883 4282529806
0.037659999 -0.74782002 1.883 4280684827
-0.038720001 -0.77624381 1.936 4282266408
-0.2009753 -0.77624381 1.936 4280030738
-0.35929051 -0.76052862 1.915 4281149201
-0.38847151 -0.76782382 1.915 4280819216
-0.41035721 -0.76417619 1.915 4281147658
-0.47523329 -0.75499338 1.883 4280883728
-0.62968481 -0.74384862 1.873 4280886281
-0.17985331 0.1096667 0.65800011 4281280816
0.74378961 -0.4753972 1.499 4283845709
-0.83923721 -0.74697429 1.863 4281938726
-0.37788001 0.10716 0.65800011 4281148698
0.53821242 -0.4753972 1.499 4283780406
-0.89012098 -0.74741632 1.873 4282002980
0.47825241 -0.46968669 1.499 4284109372
-0.92650002 -0.7429648 1.853 4282134065
-0.95826572 -0.7429648 1.853 4282134823
-0.2397553 -0.2038448 1.109 4284438599
-0.132119 -0.20592859 0.77499998 4284832855
0.68774098 -0.77624381 1.936 4284438072
0.83748668 -0.75858003 1.883 4284437581
-0.20636 -0.18172 1.0779999 4283912774
-0.1004457 -0.2016038 0.74800003 4287924109
0.71675718 -0.77147138 1.915 4284372302
-0.2292524 -0.50731337 1.553 4284174657
-0.3812848 -0.19961999 1.109 4284570454
0.53654861 -0.77993149 1.936 4282398484
0.55397338 -0.71898669 1.768 4285361479
0.50884289 -0.77147138 1.915 4283184934
-0.41737711 -0.47761711 1.506 4283780410
0.47754669 -0.77993149 1.936 4283186203
0.4783572 -0.059471428 0.90499997 4283848513
-0.4163267 -0.39268669 1.3789999 4284634186
0.44435811 -0.77993149 1.936 4283187750
0.44905239 -0.059471428 0.90499997 4284831530
-0.43733999 -0.39006001 1.3789999 4284438350
-0.53760087 -0.2080695 1.109 4283781188
0.38904381 -0.77993149 1.936 4283777587
0.38481909 -0.059668571 0.90800011 4284437525
-0.50563341 -0.39531341 1.3789999 4284437838
-0.5692867 -0.2059572 1.109 4284175176
0.35954291 -0.77993149 1.936 4283252797
0.3588762 -0.059668571 0.90800011 4284832593
-0.53978002 -0.39268669 1.3789999 4284437576
-0.62195712 -0.20731901 1.105 4283912786
0.2968533 -0.77993149 1.936 4283319096
0.29899999 -0.059799999 0.91000003 4284569685
-0.59756672 -0.39794001 1.3789999 4284634701
0.17457619 0.15053619 0.60100001 4283582011
-0.2102638 -0.01969238 0.66700011 4278723942
0.20973811 -0.77147138 1.915 4283188281
0.1936 -0.77993149 1.936 4282991414
-0.68949997 -0.39794001 1.3789999 4284240202
0.1788495 -0.77993149 1.936 4283187239
-0.71839339 -0.39794001 1.3789999 4283978575
0.1235352 -0.77993149 1.936 4282858281
0.1323086 -0.059668571 0.90800011 4283715413
-0.74991339 -0.4005667 1.3789999 4284371788
0.1198476 -0.77993149 1.936 4282924071
0.1198048 -0.059471428 0.90499997 4283191887
-0.77092671 -0.40582001 1.3789999 4284306253
0.089833327 -0.7755 1.925 4282726443
0.05921619 0.1202638 0.64099997 4283453505
0.087151438 -0.78436291 1.947 4282726699
-0.81560773 -0.50920773 1.5319999 4282593586
0.00184381 -0.77624381 1.936 4281740571
-0.023969529 -0.77993149 1.936 4282201134
-0.144081 -0.76782382 1.915 4281543721
-0.081347629 -0.64930189 1.553 4284901219
-0.01198 0.1500352 0.59899998 4282599482
0.019726669 -0.75140673 1.883 4280225547
-0.1493486 -0.77993149 1.936 4281347366
-0.1788495 -0.77624381 1.936 4280492039
-0.2378514 -0.77993149 1.936 4281476367
-0.25260189 -0.77993149 1.936 4281149973
-0.32646191 -0.77147138 1.915 4280623630
-0.35954291 -0.77624381 1.936 4280885268
-0.38535619 -0.77993149 1.936 4280622350
-0.4185448 -0.77993149 1.936 4280687119
-0.44067049 -0.77993149 1.936 4280621583
-0.45910859 -0.77993149 1.936 4280360718
0.1180714 -0.41935721 1.425 4283910203
-0.7765134 -0.75858003 1.883 4281543200
0.058357138 -0.41935721 1.425 4283714881
-0.81955338 -0.75140673 1.883 4282002721
0.02044286 -0.41839719 1.431 4283845186
-0.86976671 -0.75499338 1.883 4282330155
-0.95943338 -0.75858003 1.883 4281872173
-0.98297232 -0.74649429 1.853 4281937957
0.1594848 -0.19961999 1.109 4283977781
1.079833 -0.7755 1.925 4282793007
0.20882 -0.39006001 1.3789999 4283845189
1.045513 -0.75858003 1.883 4283185464
0.1356238 -0.4725419 1.499 4284172609
1.01682 -0.76216668 1.883 4284175157
0.1184924 -0.46968669 1.499 4283649087
-0.02208381 -0.1788076 0.74800003 4286406716
0.79908758 -0.74858087 1.8940001 4284240451
0.12366 -0.15244859 0.68699998 4285563805
0.95826572 -0.74649429 1.853 4284306237
0.059831429 -0.44943139 1.461 4283714610
0.91997999 -0.75499338 1.883 4284503133
0.01570381 -0.4725419 1.499 4283780154
0.77993149 -0.77993149 1.936 4284438342
0.86976671 -0.75140673 1.883 4284634955
-0.2059572 -0.2038448 1.109 4284306767
-0.1188333 -0.18230949 0.77499998 4284230682
0.7098667 -0.77993149 1.936 4283978310
-0.50893152 -0.14389139 1.0140001 4282596147
0.41824859 -0.71825808 1.853 4283516210
0.54533821 -0.71970952 1.795 4281811771
-0.35510001 -0.41137999 1.4069999 4284437581
-0.35804859 -0.2038448 1.109 4284240718
0.54392391 -0.77993149 1.936 4282659596
0.59101719 -0.69204569 1.768 4284306763
0.65098011 -0.75140673 1.883 4284634947
-0.26855999 -0.47317719 1.492 4284435273
0.68794 -0.78436291 1.947 4284241226
-0.1219895 -0.21402951 0.76700002 4286144595
0.4922972 -0.77993149 1.936 4283186220
0.49450001 -0.05934 0.90300012 4282926913
-0.38218001 -0.39268669 1.3789999 4284373330
0.4468829 -0.78807151 1.947 4283121695
-0.47928861 -0.50860292 1.539 4283846452
0.3281334 0.1208267 0.64400011 4284174931
0.35416859 -0.78807151 1.947 4283384108
-0.56723142 -0.50860292 1.539 4284108620
0.20971429 0.1514286 0.60000002 4284044094
-0.20538761 -0.020341899 0.68900001 4279378266
0.220681 -0.77511913 1.915 4283188014
-0.2028657 -0.01406 0.70300001 4279313500
0.2378514 -0.77993149 1.936 4283317811
-0.65798002 -0.4005667 1.3789999 4284306002
0.041487619 -0.76661903 1.8940001 4280490768
-0.02991334 0.1202638 0.64099997 4284369207
0.01298 -0.78807151 1.947 4280688649
-0.2078476 0.1200762 0.63999999 4282198561
-0.1798657 -0.78436291 1.947 4280426510
-0.3590095 0.1249524 0.63999999 4281082647
-0.3263543 -0.78361911 1.936 4280689161
-0.36088291 0.1247571 0.63900012 4281279770
-0.34304291 -0.78807151 1.947 4281081363
-0.3875457 -0.78807151 1.947 4280819220
-0.46142381 -0.77511913 1.915 4280359691
-0.56735718 -0.74192858 1.8329999 4278321665
0.80894578 -0.46245429 1.467 4283649343
-0.65474772 -0.77511913 1.915 4281084189
-0.2080124 0.085960947 0.68900001 4280755241
0.71892858 -0.49816671 1.525 4283911739
-0.68016672 -0.77916658 1.925 4281346579
-0.2389476 0.073471427 0.69500011 4287141535
0.66409242 -0.50731337 1.553 4284239170
-0.68028098 -0.77511913 1.915 4281281043
-0.23950949 0.088585712 0.68900001 4280490759
0.68988103 -0.49526191 1.525 4283780162
-0.71316671 -0.77916658 1.925 4281345567
-0.26958191 0.067225717 0.71300012 4279111432
0.65817618 -0.50731337 1.553 4284305994
-0.71675718 -0.77511913 1.915 4281543205
-0.2696943 0.088585712 0.68900001 4281344281
0.65792859 -0.49235719 1.525 4284043072
-0.77876669 -0.77147138 1.915 4281936161
-0.32875139 0.082023807 0.68900001 4281674787
0.59983331 -0.48945239 1.525 4283780672
-0.77916658 -0.77916658 1.925 4281935652
-0.32982001 0.063505717 0.71700001 4281540361
0.59605622 -0.50731337 1.553 4284174134
-0.78283328 -0.77916658 1.925 4281673505
-0.35813051 0.065052383 0.71899998 4281412885
0.55464292 -0.50731337 1.553 4284436547
0.088214293 -0.41935721 1.425 4283518531
-0.80879343 -0.75140673 1.883 4281740589
-0.83783329 -0.7755 1.925 4281675295
-0.38962951 0.065052383 0.71899998 4281085223
0.51914573 -0.50731337 1.553 4284108357
-0.86350012 -0.77916658 1.925 4281937190
-0.41154191 0.063682862 0.71899998 4281872154
0.50731337 -0.50731337 1.553 4284107844
-0.86995709 -0.77147138 1.915 4281281324
-0.3943705 0.088585712 0.68900001 4282133549
0.50978571 -0.49235719 1.525 4283910724
-0.89913809 -0.77511913 1.915 4281740833
0.47783339 -0.49235719 1.525 4283912250
-0.89845997 -0.76216668 1.883 4281806378
0.15092 -0.18172 1.0779999 4283579960
1.077871 -0.77147138 1.915 4282727465
0.0080352379 -0.1848105 0.76700002 4285031253
0.81680769 -0.77993149 1.936 4284569149
0.98812681 -0.76216668 1.883 4284634188
0.072808579 -0.4725419 1.499 4283451191
-0.02065905 -0.2087276 0.74800003 4285239020
0.80794758 -0.76417619 1.915 4283847743
0.03772286 -0.4512772 1.467 4283583037
-0.00072857138 -0.18141431 0.76499999 4283453753
0.80943239 -0.77993149 1.936 4284438345
0.94867343 -0.76575339 1.883 4284305982
0.05853238 -0.4725419 1.499 4283648327
0.023613339 -0.18172 1.0779999 4283387459
0.92661327 -0.77066672 1.904 4284240459
-0.179261 -0.19376761 1.0880001 4284241228
-0.089523807 -0.2041143 0.75199997 4284828235
0.74983329 -0.77916658 1.925 4284240967
0.88411337 -0.75499338 1.883 4284438088
-0.4156124 -0.64930189 1.553 4283715920
-0.0099933334 -0.4753972 1.499 4283451971
0.83957332 -0.7742933 1.904 4284175172
0.86995709 -0.77876669 1.915 4284306242
-0.036088571 -0.2087476 0.74299997 4286818806
0.77876669 -0.77876669 1.915 4284045374
-0.08892858 -0.1999114 0.74699998 4286543490
0.74593812 -0.77147138 1.915 4284372040
-0.23952191 -0.22218101 1.138 4284504152
0.68821239 -0.80072671 1.969 4284307025
-0.5993467 -0.2265162 1.138 4284241229
0.32816669 -0.80072671 1.969 4283318053
0.2937867 0.1208267 0.64400011 4283387716
-0.59886003 -0.21018191 1.109 4284175432
0.3282086 -0.78436291 1.947 4283384108
-0.58775139 -0.50860292 1.539 4283780414
0.1640572 -0.8052001 1.98 4283317552
-0.71576291 -0.43657431 1.437 4283649600
0.1481438 -0.80072671 1.969 4282268714
0.03541429 0.1802429 0.55500001 4283386425
0.061766669 -0.73590571 1.853 4281150991
0.14633051 -0.084648572 0.68900001 4284966777
-0.81006002 -0.44850001 1.449 4283516463
0.01638571 0.1802429 0.55500001 4283320380
0.058237139 -0.73590571 1.853 4280951309
0.01312667 -0.80072671 1.969 4280886281
-0.02812857 -0.80072671 1.969 4282135341
-0.04313048 -0.80072671 1.969 4282135339
-0.35442001 -0.80072671 1.969 4281344792
-0.37692291 -0.80072671 1.969 4281280022
-0.95279151 -0.74697429 1.863 4281807138
-0.45826569 -0.56962001 1.499 4280753428
-0.2691752 0.1221314 0.63800001 4280492567
-0.2392029 -0.78807151 1.947 4281476621
-0.38657141 -0.8052001 1.98 4281279501
-0.59119523 -0.7429648 1.853 4279568937
0.77820861 -0.45965999 1.467 4283517247
-0.6123724 -0.7429648 1.853 4279108356
0.74747151 -0.45686579 1.467 4283977293
-0.74958569 -0.77511913 1.915 4281477402
-0.2998791 0.085960947 0.68900001 4280949003
0.62888098 -0.49235719 1.525 4283977549
-0.83348101 -0.76782382 1.915 4281806371
-0.38649619 0.087273337 0.68900001 4280887584
0.53302377 -0.48945239 1.525 4283846726
-0.92715329 -0.75858003 1.883 4281609768
-1.014738 -0.75355327 1.853 4281674545
0.32835621 -0.56489718 1.6339999 4284043334
0.1488667 -0.18172 1.0779999 4283777078
1.031787 -0.7742933 1.904 4283844657
0.1119067 -0.18172 1.0779999 4283977025
1.01728 -0.77792001 1.904 4283978028
0.98826671 -0.7742933 1.904 4284306764
0.048253339 -0.18172 1.0779999 4282862409
0.95925331 -0.77792001 1.904 4284372042
0.88090008 -0.77876669 1.915 4284307005
0.7472772 -0.7954886 1.947 4284306248
-0.2017162 -0.50797153 1.546 4286201136
0.55237049 -0.72531712 1.853 4281409291
-0.35906571 -0.4484829 1.467 4284174931
-0.41943431 -0.22218101 1.138 4287527427
0.5081895 -0.80447721 1.969 4282529813
-0.4198257 -0.23690949 1.1569999 4284110418
0.49971429 -0.80897152 1.98 4282661404
-0.38730571 -0.43383709 1.437 4284239402
-0.44847521 -0.2391133 1.1569999 4284503119
0.47331429 -0.8052001 1.98 4282597427
-0.41741431 -0.43110001 1.437 4284371015
-0.44761339 -0.2286838 1.138 4283781697
0.47818571 -0.79697633 1.969 4283121721
-0.47877431 -0.23994 1.161 4284305991
0.44691429 -0.80897152 1.98 4283055648
-0.44752291 -0.43931139 1.437 4283977797
-0.47795999 -0.2265162 1.138 4284700245
0.4481819 -0.80447721 1.969 4282924577
0.1499629 -0.039031431 0.71899998 4279112520
0.5507229 -0.79178011 1.947 4281474572
0.57535899 -0.73122001 1.7410001 4286148185
-0.35778859 -0.50797153 1.546 4283714112
-0.50577432 -0.2391133 1.1569999 4284306774
0.40920001 -0.80897152 1.98 4283449898
-0.47215721 -0.43383709 1.437 4283911990
0.53959721 -0.78807151 1.947 4282267407
0.54723811 -0.74256003 1.768 4284635726
-0.38723621 -0.50797153 1.546 4283978576
-0.53477228 -0.2382867 1.153 4284502622
0.38657141 -0.80897152 1.98 4283384892
-0.50774002 -0.43110001 1.437 4284502863
-0.53865331 -0.23301899 1.138 4284240458
0.3881743 -0.80072671 1.969 4283450422
0.50251138 -0.79178011 1.947 4282660896
-0.41373909 -0.50797153 1.546 4283582506
-0.56991142 -0.2382867 1.153 4284437844
0.34508571 -0.80897152 1.98 4283252786
-0.53784859 -0.43383709 1.437 4284634446
0.47655141 -0.78807151 1.947 4283055657
-0.4499743 -0.50860292 1.539 4283649065
-0.59909528 -0.2398572 1.15 4284568640
0.31868571 -0.80897152 1.98 4283188534
-0.56795722 -0.43657431 1.437 4284174662
0.17848 0.1208267 0.64400011 4283910971
0.2095343 -0.79178011 1.947 4283253039
-0.71966571 -0.50860292 1.539 4284370773
0.1781476 -0.80447721 1.969 4282925854
-0.70885998 -0.42210001 1.4069999 4284174152
0.26967141 0.1210143 0.64499998 4284503884
-0.62209618 -0.21018191 1.109 4283781196
0.29854 -0.78807151 1.947 4283319098
-0.62879151 -0.50860292 1.539 4284305979
0.1414286 -0.80897152 1.98 4283054898
-0.74587148 -0.44204861 1.437 4284109386
0.2398133 0.1208267 0.64400011 4284372299
0.26145431 -0.7954886 1.947 4283253036
-0.65517431 -0.50860292 1.539 4284108612
0.1188 -0.80897152 1.98 4283056170
-0.77324289 -0.44752291 1.437 4283977023
0.20972 0.1204514 0.64200002 4285550396
0.2392029 -0.78807151 1.947 4283252537
-0.67276287 -0.50860292 1.539 4284108615
0.084857151 -0.80897152 1.98 4282925877
-0.80335152 -0.44204861 1.437 4283779895
0.081577137 -0.8138743 1.992 4282992434
0.14904 0.1208267 0.64400011 4283779141
0.1798657 -0.78807151 1.947 4283057205
-0.73432279 -0.50860292 1.539 4284567374
0.01697143 -0.80897152 1.98 4279831052
0.1190429 0.1202638 0.64099997 4284764495
0.14648861 -0.78807151 1.947 4282530852
-0.75777429 -0.50860292 1.539 4284109379
-0.028285719 -0.80897152 1.98 4282266926
0.089740001 0.1202638 0.64099997 4284566845
0.1019857 -0.79178011 1.947 4282858286
-0.80977142 -0.50920773 1.5319999 4283383102
-0.0396 -0.80897152 1.98 4282070828
-0.036976188 -0.6108467 1.553 4281807666
-0.05921619 0.1202638 0.64099997 4282662456
-0.02410572 -0.78807151 1.947 4282201131
-0.1716 -0.80897152 1.98 4281478682
-0.1781476 -0.80447721 1.969 4281215255
-0.44878581 -0.56207138 1.525 4280295993
-0.45005909 -0.61903429 1.706 4282332437
-0.2081514 -0.80072671 1.969 4280554758
-0.084723823 0.1200762 0.63999999 4282727997
-0.03523143 -0.78807151 1.947 4282200365
-0.2093143 -0.80897152 1.98 4280753163
-0.2357143 -0.80897152 1.98 4281280783
-0.4545953 -0.56788099 1.525 4280953642
-0.23815531 -0.80447721 1.969 4281346320
-0.91730571 -0.74342573 1.863 4282068782
-0.4497 -0.56962001 1.499 4280425759
-0.2363638 0.1209162 0.63800001 4281740318
-0.2021172 -0.78436291 1.947 4279571725
-0.34508571 -0.80897152 1.98 4281345808
-0.29935709 0.1215572 0.63500011 4281343249
-0.25403711 -0.7954886 1.947 4281740319
-0.40542859 -0.80897152 1.98 4281148686
-0.40692669 -0.80447721 1.969 4281083159
-0.4643257 -0.79998291 1.9579999 4280951310
-0.029207621 0.044879999 0.74800003 4283846714
0.87694287 -0.53815812 1.574 4284307532
-0.76933998 -0.74782002 1.883 4281870379
-0.329 0.1046533 0.65800011 4281215019
0.59817243 -0.46683139 1.499 4283910975
-0.60278863 -0.74523431 1.824 4278715141
-0.1806629 0.034377139 0.76800001 4280756007
0.71591997 -0.53960001 1.596 4284831300
-0.65816659 -0.78649998 1.925 4281084177
-0.1814619 0.059574291 0.71899998 4289178324
0.71733809 -0.52210379 1.553 4283977293
-0.80794758 -0.77876669 1.915 4281674516
-0.35893619 0.083336189 0.68900001 4281806362
0.56788099 -0.49235719 1.525 4283846211
0.44297621 -0.48364291 1.525 4284372054
0.41973811 -0.48945239 1.525 4283453754
-0.98826671 -0.77792001 1.904 4281676842
0.37907141 -0.48654759 1.525 4282077358
-0.98812681 -0.76933998 1.883 4281740831
1.055986 -0.78241432 1.915 4282859052
0.16702379 -0.48945239 1.525 4283910715
-1.0217969 -0.75708288 1.853 4281674799
0.29723239 -0.56800961 1.6339999 4284109125
1.0851671 -0.77147138 1.915 4282923305
-1.007679 -0.74649429 1.853 4281741098
-1.016229 -0.74523431 1.824 4281610277
0.32984 -0.53960001 1.596 4284239687
1.04869 -0.78606188 1.915 4282726701
0.140881 -0.49235719 1.525 4283582507
-0.2377286 -0.23994 1.161 4284699981
0.68828583 -0.8052001 1.98 4284175950
-0.084225707 -0.1951572 0.71899998 4284500532
0.95749998 -0.78606188 1.915 4284306257
0.03340476 -0.49235719 1.525 4283188019
0.80822772 -0.80822772 1.969 4284306749
0.9283191 -0.78241432 1.915 4284240478
-0.38287339 -0.66435337 1.589 4281741097
0.01307143 -0.49235719 1.525 4283451698
0.77822387 -0.80822772 1.969 4284306236
0.88454771 -0.78241432 1.915 4284307001
-0.0072619049 -0.48945239 1.525 4283515450
0.74071908 -0.80822772 1.969 4284437578
0.86630958 -0.78241432 1.915 4284175168
-0.2091752 -0.2265162 1.138 4284569938
0.71821618 -0.80822772 1.969 4284306240
-0.35214669 -0.18172 1.0779999 4284371788
0.56720477 -0.77147138 1.915 4280359208
0.58228189 -0.71754289 1.732 4285951068
-0.35713711 -0.47761711 1.506 4283780924
0.12609141 -0.052003808 0.74800003 4284178291
-0.3544057 -0.2265162 1.138 4284503638
0.55694568 -0.80447721 1.969 4281276943
-0.38692001 -0.2243486 1.138 4284503893
0.53819329 -0.80822772 1.969 4282330643
0.54875708 -0.74364293 1.795 4284437836
-0.56683242 -0.2308514 1.138 4284437062
0.35817051 -0.80447721 1.969 4283384876
-0.62969333 -0.2308514 1.138 4284306236
0.2944124 -0.80447721 1.969 4283384627
-0.63619608 -0.23301899 1.138 4284108612
0.26815909 -0.80822772 1.969 4283187504
0.2119019 -0.80822772 1.969 4283187501
-0.65793997 -0.42478001 1.4069999 4284174663
0.2081514 -0.80822772 1.969 4283253043
-0.67133999 -0.42210001 1.4069999 4284437329
0.1068886 -0.80822772 1.969 4283056177
0.1149048 -0.089571431 0.94999999 4283847233
-0.77854002 -0.43013999 1.4069999 4284304971
0.0019076189 -0.82218379 2.003 4282070311
-0.58130759 -0.65836859 1.7589999 4282727205
-0.12987331 0.18736669 0.53899997 4281214232
0.76813138 -0.38602859 1.374 4283912003
-0.26815909 -0.80822772 1.969 4280823305
-0.3567248 -0.82218379 2.003 4281608727
-0.44443139 -0.80822772 1.969 4280953106
-0.45429999 -0.7991972 1.947 4281477134
0.8741172 -0.52506191 1.553 4283846208
-0.68794 -0.7991972 1.947 4281411094
0.68479908 -0.51322949 1.553 4284501567
-0.7472772 -0.7991972 1.947 4281281044
0.62859517 -0.51322949 1.553 4284041535
-0.77323723 -0.7954886 1.947 4281739548
0.59901428 -0.51027137 1.553 4283911188
-0.80822772 -0.80822772 1.969 4281542943
-0.35927141 0.04339714 0.74699998 4282002718
0.55842012 -0.53118002 1.589 4284175946
-0.8029058 -0.7954886 1.947 4281346865
0.56943327 -0.51322949 1.553 4283978807
-0.83727813 -0.80371243 1.9579999 4281805854
-0.3896724 0.043455239 0.74800003 4281478934
0.5160467 -0.53723341 1.589 4284766795
-0.83999151 -0.7991972 1.947 4281544226
0.53985238 -0.51322949 1.553 4283978312
-0.3842915 -0.62870669 1.546 4280229911
-0.86224288 -0.7954886 1.947 4281872151
0.36982 -0.59715527 1.681 4284174401
1.109533 -0.79998291 1.9579999 4282530615
-0.99189341 -0.77792001 1.904 4281741357
0.35873809 -0.48945239 1.525 4282470581
-1.0407979 -0.77744192 1.8940001 4281412640
0.32678571 -0.49235719 1.525 4283451992
0.86448479 -0.80822772 1.969 4284044353
1.01951 -0.78606188 1.915 4283911980
0.1176429 -0.48945239 1.525 4283386930
0.98303342 -0.78241432 1.915 4284241480
0.071166672 -0.49235719 1.525 4283253563
0.81947911 -0.80822772 1.969 4284372551
-0.2393667 -0.24604671 1.169 4284570452
0.68865049 -0.82599902 2.003 4284437336
-0.21736 -0.53960001 1.596 4283253040
-0.47894481 -0.1251467 0.98799998 4283118115
0.44992 -0.70006859 1.824 4283581741
-0.47772861 -0.4185172 1.413 4284174928
-0.50717342 -0.1251467 0.98799998 4282266433
0.4151772 -0.70006859 1.824 4283713587
-0.4959743 -0.41759139 1.419 4284371523
-0.38855341 -0.2482733 1.169 4284438355
0.52459532 -0.82599902 2.003 4282462244
0.54720002 -0.75913149 1.824 4284438087
-0.38152 -0.53960001 1.596 4282396191
-0.4197267 -0.24604671 1.169 4284503118
0.50933433 -0.82599902 2.003 4282725668
-0.44867331 -0.2482733 1.169 4284568904
