# .PCD v0.7 - Point Cloud Data file format
VERSION 0.7
FIELDS x y z rgb
SIZE 4 4 4 4
TYPE F F F U
COUNT 1 1 1 1
WIDTH 884
HEIGHT 1
VIEWPOINT 0 0 0 1 0 0 0
POINTS 884
DATA ascii
-0.041114762 0.028367179 0.24399997 7749173
-0.037330084 0.027739311 0.24353071 8933708
-0.032647729 0.027432967 0.2435157 9261904
-0.027614338 0.027579347 0.2435001 10378073
-0.022799812 0.028297156 0.243683 11364970
-0.018730722 0.029078998 0.24399997 13142930
-0.045264907 0.034322277 0.24400002 6238243
-0.04230978 0.032711245 0.24370009 6829095
-0.037588153 0.032391559 0.24264058 7815733
-0.032525897 0.032386493 0.24260932 8209463
-0.027423985 0.032331899 0.24218741 9523526
-0.02243674 0.032422088 0.24285936 11101281
-0.017820921 0.032931261 0.2439217 12945031
-0.045614451 0.037658907 0.24399999 6237986
-0.042494174 0.037596378 0.2435894 6434337
-0.03759779 0.037460219 0.24270312 7026216
-0.032455686 0.037362926 0.24207802 7748909
-0.027456002 0.037427682 0.24249993 8931644
-0.022454226 0.03750962 0.24303128 10378067
-0.018354284 0.037225094 0.24389477 11955818
-0.04510602 0.042107757 0.244 6501669
-0.042317811 0.042804822 0.24400018 6566179
-0.037461463 0.042558994 0.24331045 6960422
-0.032583181 0.04257391 0.24303128 7419688
-0.027521402 0.042580407 0.24306254 8406069
-0.022698482 0.042501364 0.24367255 9787213
-0.019429827 0.041027322 0.244 10968924
-0.041462198 0.046069346 0.24399997 6697765
-0.037392758 0.046296608 0.24399997 7157289
-0.032553915 0.047062144 0.24400009 7683116
-0.027946183 0.046747264 0.244 8339764
-0.024132892 0.045966446 0.24399999 9326403
-0.032086007 0.019946285 0.24900003 10646657
-0.026890172 0.01956995 0.24892862 11103861
-0.02404788 0.019368773 0.24887502 11695999
-0.05174293 0.023738435 0.24876474 6699309
-0.04751445 0.023428256 0.24813041 7815225
-0.042395201 0.022987077 0.24728306 9654352
-0.037414193 0.023004295 0.24683326 11038326
-0.032458458 0.022613324 0.24662298 10315118
-0.027517142 0.022616558 0.2465968 10905195
-0.022974608 0.022948649 0.24661222 12025477
-0.019238833 0.024507662 0.24642859 13275290
-0.055709023 0.028128283 0.24900006 5647137
-0.052480061 0.027234428 0.24768521 6041638
-0.047578264 0.027774148 0.24583606 6698539
-0.043165829 0.027048945 0.24510249 7814967
-0.03818002 0.025460411 0.245 9787737
-0.027103487 0.025369247 0.245 10707043
-0.022138273 0.026108649 0.24517384 11892087
-0.018939868 0.02678686 0.2453333 13275030
-0.057272457 0.032887228 0.2485556 5449503
-0.052766003 0.032346599 0.24712496 5777953
-0.04769741 0.03257316 0.24548277 6106658
-0.044440001 0.031218989 0.245 6764074
-0.057328835 0.037450742 0.24841668 5778211
-0.052621633 0.037394408 0.24644642 5975073
-0.048406169 0.037349079 0.24509993 6172194
-0.016133239 0.038078967 0.24523805 12615037
-0.012634006 0.038021892 0.24712496 14130338
-0.0089896079 0.038538706 0.24900004 15314358
-0.057071429 0.042167224 0.24875677 6305065
-0.052641738 0.042373065 0.24701996 6567723
-0.047882456 0.042404033 0.24524997 6501927
-0.020615591 0.044301149 0.245 10377813
-0.017310295 0.042606443 0.24562499 11561063
-0.012995159 0.042107265 0.24790911 13011599
-0.0094940541 0.040268231 0.24900001 15052728
-0.055434626 0.045240626 0.24900001 6896689
-0.051985092 0.047019664 0.24829736 6896430
-0.047460124 0.04732075 0.24630617 6895660
-0.042715441 0.048264496 0.24532492 6894890
-0.037452258 0.04873918 0.24506658 7288619
-0.032882325 0.04947729 0.24499999 7946287
-0.027214803 0.048990577 0.24504757 8734009
-0.022450024 0.047682382 0.24557444 9786442
-0.01781543 0.047436044 0.2474151 11166817
-0.014284573 0.046098221 0.24866669 12352382
-0.050570328 0.050429206 0.24900001 7093552
-0.046973158 0.05202264 0.2483636 6961198
-0.04240131 0.052735664 0.24733336 7289391
-0.037468482 0.052446824 0.24655552 7617583
-0.032454092 0.052499797 0.24624072 8143411
-0.027435137 0.052527662 0.24675439 8931645
-0.022448391 0.05226228 0.24800001 9786955
-0.018767102 0.051016759 0.24870002 10773339
-0.04185776 0.055977155 0.24886671 7486514
-0.037327327 0.056226574 0.24869573 8077622
-0.032576397 0.056119498 0.24861911 8340280
-0.027901951 0.055832881 0.2488462 9129026
-0.056367673 0.018469637 0.25357899 6304293
-0.052545123 0.017616455 0.2532075 7880760
-0.047616452 0.018297898 0.25267574 10114391
-0.042571779 0.018586669 0.25260004 12221317
-0.038412023 0.019351089 0.25309998 12618132
-0.031538535 0.019215278 0.25112501 10712189
-0.027747301 0.018484754 0.25094739 10380905
-0.023247769 0.018126424 0.25075001 11499900
-0.057044618 0.022524923 0.25193334 5844770
-0.052818079 0.021678137 0.25058973 6830382
-0.047526568 0.020733742 0.25034779 8931911
-0.042481758 0.020373682 0.25 11167083
-0.037800431 0.020403475 0.25064287 12354449
-0.034493983 0.02002639 0.25 11902893
-0.061885357 0.028075902 0.25245944 5582116
-0.057908535 0.027300056 0.25057504 5581599
-0.061812367 0.032287721 0.25064707 5648167
-0.059238732 0.031356879 0.25 5450017
-0.06204338 0.037258312 0.25060004 5911853
-0.059889905 0.038584948 0.25 5713446
-0.0085554151 0.038042299 0.25 15577274
-0.061573569 0.041450411 0.2507647 6239788
-0.059238732 0.042871863 0.25 6370859
-0.011116478 0.04378422 0.25025001 13275802
-0.0090946332 0.042491969 0.25154546 14263212
-0.060682748 0.04896085 0.25400001 6435876
-0.057541251 0.047697004 0.25136366 6567207
-0.053827982 0.048845742 0.25014284 6961965
-0.015826898 0.049763497 0.25 11298921
-0.012427128 0.047847353 0.25160465 12616586
-0.0096716983 0.046199214 0.25366667 13538204
-0.060318869 0.050912559 0.25400001 6304033
-0.057292607 0.05273981 0.25271428 6237984
-0.052507278 0.052651025 0.25062007 6961194
-0.048892245 0.053887613 0.25 6961194
-0.020385139 0.054321736 0.25 9918544
-0.017054925 0.052972708 0.25123811 11102053
-0.013497621 0.051624905 0.2528421 12155774
-0.056697648 0.056778267 0.25261539 5843740
-0.052394256 0.057592023 0.25178006 6368544
-0.047625083 0.057556901 0.25126535 6894631
-0.042801578 0.058130998 0.25059998 7420465
-0.037303668 0.058687162 0.25040743 8208697
-0.032472514 0.058770493 0.25051719 8668733
-0.027445508 0.058096312 0.25069693 9260867
-0.022598155 0.057481244 0.25163272 9984079
-0.018329261 0.05666595 0.25317395 10641759
-0.051398192 0.061465882 0.25323814 6040607
-0.04762736 0.062063567 0.25350001 6631716
-0.042459872 0.062191095 0.25325 7485487
-0.03772131 0.061975531 0.2531212 8406332
-0.032319933 0.061940446 0.25306061 8997955
-0.027568871 0.061793186 0.25332436 9458504
-0.023052942 0.060604122 0.25388888 10115409
-0.055534244 0.014170219 0.25799999 7092783
-0.051406153 0.013526579 0.25724998 9523536
-0.047876883 0.013792104 0.2579259 11891066
-0.043773931 0.014656874 0.25866666 13935804
-0.061252847 0.01969666 0.25850001 5648934
-0.057722751 0.017194808 0.25564292 6173222
-0.05220402 0.015196335 0.25500003 8735044
-0.047350623 0.015900826 0.25572005 11627892
-0.042518176 0.016335402 0.25674191 13343916
-0.038294505 0.018379103 0.25700003 13147563
-0.030892819 0.017754301 0.25800002 9401202
-0.029320588 0.017839801 0.25600001 9397091
-0.024556391 0.016667383 0.25850001 10056049
-0.062058337 0.023018911 0.25742856 5648420
-0.059616018 0.02067502 0.25533333 5779237
-0.017453384 0.020667234 0.25800002 14261157
-0.066093661 0.02715623 0.259 5649968
-0.063689113 0.025969613 0.25655556 5582886
-0.0087509733 0.037612837 0.259 15905982
-0.0065211174 0.044290237 0.25762498 14459307
-0.0033540144 0.044359036 0.259 13734813
-0.071490623 0.049755994 0.259 7234128
-0.067442901 0.049755994 0.259 6574401
-0.063455649 0.048580803 0.25692308 6042149
-0.010608426 0.049651764 0.25500003 13077395
-0.0073888898 0.047547311 0.25731248 13866655
-0.0038446463 0.047333494 0.25899997 13209495
-0.070411228 0.051105238 0.259 6443839
-0.067076489 0.052229237 0.25797501 5785653
-0.062831886 0.052626252 0.25624999 5714467
-0.0115836 0.05319323 0.25660002 12682634
-0.0081475889 0.051000521 0.25846669 13538204
-0.004703254 0.050430615 0.259 12748430
-0.066918202 0.055752609 0.25900003 5391407
-0.062716417 0.056807678 0.25804758 5191460
-0.059876479 0.056405459 0.25550002 5582624
-0.016826928 0.058316667 0.25557697 11168363
-0.01272675 0.057502028 0.25763634 12222338
-0.046656433 0.064626485 0.25500005 6368803
-0.042600781 0.06492839 0.25500003 7222059
-0.037397873 0.064319536 0.25500005 8274490
-0.032527063 0.064264186 0.25500003 8998213
-0.027336484 0.064318083 0.25505888 9721936
-0.02226509 0.062981948 0.25656757 10510940
-0.017553613 0.062205508 0.25785714 11433331
-0.013631091 0.061596505 0.25814995 12359578
-0.047088094 0.066244937 0.25550005 5253403
-0.042001534 0.066411234 0.25516671 6631205
-0.037597697 0.066934906 0.25674355 7551282
-0.032774109 0.066740938 0.25724238 8603713
-0.027547464 0.066302843 0.25595656 9591123
-0.023387918 0.065878637 0.2579231 10380642
-0.050522339 0.009114109 0.264 10837346
-0.047253985 0.0079712132 0.26370588 12944276
-0.043783434 0.0089078154 0.26399997 14463175
-0.060264025 0.014902415 0.26300001 5910310
-0.056607001 0.012993035 0.26319999 7027505
-0.052110057 0.011181015 0.26185715 9523794
-0.047127664 0.011413547 0.26162165 12944276
-0.042653617 0.012627034 0.26263463 14859472
-0.039691955 0.014443344 0.264 15455703
-0.0658224 0.019600671 0.264 5189161
-0.062773556 0.017988447 0.26249996 5319970
-0.040768791 0.015468918 0.26100001 14205646
-0.037967756 0.017184783 0.26232001 13811914
-0.032370649 0.016976636 0.26286957 6375485
-0.028226795 0.016503572 0.26357144 8349535
-0.02260023 0.016669102 0.2631875 11106424
-0.019107712 0.018272739 0.26225001 13537686
-0.070120178 0.023898439 0.264 11976382
-0.067243785 0.022571839 0.26350001 6507847
-0.06402088 0.022343263 0.26135716 5517348
-0.017588681 0.020150222 0.26000002 14656429
-0.070120178 0.026305193 0.264 11382188
-0.067602001 0.025876701 0.26199999 6244420
-0.011285061 0.037508693 0.26300001 15642808
-0.0029577424 0.037340805 0.26383331 15771314
-0.0043828012 0.043853082 0.26000002 14130083
-0.071413361 0.047634572 0.26192114 8814967
-0.068489172 0.047818024 0.26225808 7101520
-0.007189176 0.053268302 0.26050007 13143188
-0.0047395728 0.053539354 0.26100001 12161168
-0.066595688 0.057640918 0.26015383 5259821
-0.064178795 0.058695942 0.26012501 5127465
-0.010139211 0.057058964 0.26000002 12814220
-0.0080300467 0.056899711 0.2616297 12751768
-0.062745199 0.060222063 0.26050001 4864036
-0.016911456 0.064847045 0.26000002 12096407
-0.036283299 0.069721445 0.26050001 6630953
-0.033398584 0.069552138 0.26050001 7026223
-0.021846607 0.067025028 0.26166669 10776172
-0.01859815 0.065863259 0.26057142 11635855
-0.036665987 0.07114315 0.26324999 4727579
-0.034575075 0.071075588 0.26300001 4858907
-0.051436283 0.0039564143 0.26827276 10182501
-0.047426488 0.0037046974 0.26732147 12356766
-0.042579252 0.0036670766 0.26810724 13937597
-0.039021794 0.0038661701 0.26876926 13941974
-0.065142207 0.0096370578 0.26900002 9476247
-0.056594566 0.0089310799 0.26884618 7422266
-0.0524229 0.0069869068 0.26708335 9590103
-0.047584318 0.0058611417 0.26513338 12816029
-0.042119026 0.0071437489 0.2655111 14926801
-0.037773337 0.0077499622 0.26784447 14010062
-0.03221086 0.0093822693 0.26900002 9469811
-0.027126476 0.0087078782 0.26888004 8085319
-0.022319546 0.0085520921 0.2680001 8808530
-0.017777845 0.0088437302 0.26823813 11245455
-0.065884322 0.012299443 0.26842108 7167579
-0.062659681 0.012422631 0.26834881 5452070
-0.057796914 0.011370901 0.26756522 6896432
-0.054510076 0.010874252 0.26500002 8275778
-0.040513139 0.011154194 0.26510003 15585504
-0.03738334 0.012271602 0.26633996 13879753
-0.032546729 0.012326479 0.26728001 8418150
-0.027519096 0.012338786 0.26719609 6965807
-0.022401897 0.012339698 0.266 9006429
-0.017394209 0.01231438 0.26728258 12231069
-0.014694187 0.013607505 0.26900002 14138294
0.098113202 0.014541727 0.26900002 10841922
0.11183459 0.014074617 0.26900002 16644067
-0.066895418 0.017503973 0.26571426 6508105
-0.063794389 0.01608739 0.26607695 5188899
-0.036339991 0.016168855 0.26504761 11709607
-0.032634523 0.015387411 0.26500005 6311486
-0.02747448 0.015497369 0.26512507 7493704
-0.021980772 0.015566173 0.26514289 11107708
-0.01709732 0.016382407 0.26757148 14594222
0.098813869 0.01693875 0.26900002 10841408
0.10188165 0.017552698 0.26900002 11960151
0.10511987 0.018045062 0.26900002 13670265
0.11263392 0.016619567 0.26900002 16708056
-0.069350414 0.020882851 0.26500002 10528680
-0.015954904 0.02172065 0.26846159 16500948
0.099203132 0.021392694 0.26900002 10446136
0.10122728 0.021275917 0.26900002 11103297
-0.015734227 0.027713025 0.26827276 16236747
-0.014413918 0.029395869 0.26900002 16301254
-0.015337621 0.0305431 0.26800001 15447228
-0.014393899 0.031557925 0.26900002 16103359
-0.006286181 0.034510735 0.26900002 16762321
-0.0028584793 0.033772491 0.26768753 16298430
0.0017264119 0.034187093 0.26800001 14457000
-0.00680053 0.037682779 0.26731583 16497092
-0.0026863141 0.036130339 0.26524997 15837879
0.0010020043 0.036797795 0.26591665 14326182
-0.071421161 0.044696409 0.26500002 10856098
-0.06969554 0.044006165 0.26500002 7564906
-0.021487461 0.069218859 0.26640004 10517631
-0.019069849 0.06843695 0.2665 11836835
-0.036736004 0.073863 0.26750004 4665123
-0.056565277 -0.00048134971 0.27400002 7890790
-0.052403629 -0.00043500614 0.27399999 7882826
-0.047716338 -0.0005047794 0.27384615 10246756
-0.042394176 -0.001042888 0.27317396 12287632
-0.03770081 -0.0012443282 0.27324995 12816037
-0.033172142 -0.00071038736 0.27368748 13279409
-0.029954813 -0.00017548232 0.27400002 12558767
-0.061155986 0.0042969896 0.27100003 7299423
-0.05746286 0.0029509759 0.27197912 6701886
-0.052935809 0.0019477983 0.272129 9000535
-0.04754214 0.0012368293 0.27119046 11433347
-0.042418476 0.0012678469 0.27072725 13079465
-0.037027158 0.0023470004 0.27092502 13413568
-0.032542303 0.0026537541 0.27177551 12297134
-0.027657252 0.0026591567 0.27246931 10980745
-0.022946199 0.0032780264 0.27294445 11109248
-0.018664191 0.0044599874 0.27380002 12031379
0.089469403 0.0043445579 0.27400002 10782294
0.092875212 0.003547905 0.27361292 10979157
0.097547457 0.0034730998 0.27360603 11964264
0.10275553 0.0041049859 0.2739048 14659480
0.1061013 0.0045707258 0.27333334 16698302
-0.065384373 0.0086179748 0.27000001 12108737
-0.06249465 0.0077812318 0.27043188 6507590
-0.058023214 0.0069484157 0.27047226 6634290
-0.05448366 0.0058048889 0.27000001 8276807
-0.035655156 0.0065401271 0.27000001 12430259
-0.032346699 0.0070290174 0.27013168 10523022
-0.027604235 0.0063365493 0.27020833 9204834
-0.022519872 0.0061654286 0.27042854 10190446
-0.017352946 0.0065480885 0.2712222 11837081
-0.013556934 0.0081171328 0.27241379 13415346
0.08819288 0.0078311861 0.27357897 10319943
0.092596486 0.0076700151 0.27249089 10385478
0.097687237 0.0076491837 0.27212498 11436629
0.10272127 0.0075983489 0.27234 13539708
0.1072801 0.0076686228 0.27239996 16437440
0.11059266 0.0079987384 0.273 16711673
-0.061868012 0.010376155 0.27000001 5386790
-0.012605297 0.012537669 0.27181822 14926266
-0.009971478 0.013384638 0.27400002 16767445
0.084286653 0.013588551 0.27399999 9265457
0.087766774 0.012613489 0.27278575 9528373
0.092801012 0.012633266 0.27144235 9724725
0.097394228 0.012262892 0.27040914 10777670
0.10262199 0.012514523 0.27100003 12618853
0.1068738 0.012643439 0.27056763 15579293
0.11245047 0.012248542 0.270625 16711411
0.11628647 0.01416098 0.27175003 16711673
-0.013149702 0.017104324 0.27154288 16636119
0.08427532 0.017190987 0.27400002 9197354
0.08774437 0.017584678 0.27271423 9263915
0.092673644 0.01745607 0.27138004 9525804
0.096651614 0.017699132 0.27025002 9986613
0.1040455 0.016764205 0.27000001 12881258
0.10766631 0.017424157 0.27000016 15447449
0.11205109 0.018534109 0.27000001 16701122
0.1176662 0.017531453 0.27083331 16711672
0.12017269 0.018045254 0.27175003 16711673
-0.013495876 0.022685111 0.27214286 16709627
0.084949367 0.020521544 0.27400002 9393452
0.087895378 0.022516889 0.27318513 9525293
0.092601344 0.022498768 0.27150002 9590829
0.097071432 0.022510614 0.27017033 9919793
0.10333278 0.022898931 0.27000004 11892300
0.10762043 0.022331776 0.27000019 14459527
0.11252203 0.022296213 0.27052274 16632248
0.117426 0.022653688 0.27097556 16710642
0.12001897 0.021990959 0.27100003 16711673
-0.012595198 0.027215557 0.27169997 16703218
-0.007116715 0.029799521 0.27400002 16239073
-0.0024019664 0.029459661 0.2735 16497869
0.0015364385 0.029593907 0.27375001 15641530
0.088662416 0.02667976 0.27371433 9853751
0.092589647 0.027455201 0.27261111 9984566
0.097577743 0.027401205 0.27141508 10379578
0.10254128 0.027322115 0.27078 11366983
0.10742636 0.027443254 0.27093479 13407091
0.112432 0.02740106 0.27142853 16235175
0.11664032 0.026992967 0.27164283 16708579
-0.01221312 0.032485019 0.27142304 16563397
-0.0077300472 0.032313842 0.27230766 16564688
-0.0028057534 0.031361155 0.27121428 16496325
0.0016435052 0.031713039 0.27140737 15048110
0.093488894 0.031066014 0.27392855 10576961
0.097827911 0.031657577 0.2734687 10709571
0.10271791 0.032358099 0.27297914 11498314
0.1074891 0.032505129 0.27260414 13275249
0.11185507 0.032306228 0.27247363 16038308
0.11637436 0.031097025 0.27285716 16707031
-0.011503964 0.036314484 0.27164289 16234687
-0.0089397952 0.036449313 0.27070588 16497862
0.10439743 0.035687465 0.27400002 12156245
0.10774346 0.036551964 0.27388895 13934466
0.11171275 0.036222737 0.27399999 16368045
-0.050662108 -0.0052090632 0.27600002 11909819
-0.047352485 -0.0055522276 0.27653846 9466231
-0.042548366 -0.0059494399 0.27699998 9854570
-0.037245348 -0.0057210824 0.27681249 11495033
-0.032751616 -0.0061352961 0.27826086 12092055
-0.02781524 -0.0058145914 0.27864709 12354712
-0.024142686 -0.0054473621 0.27900001 12884652
-0.055564243 -0.0016087132 0.27500001 9206907
-0.052160382 -0.0026740595 0.27516133 7819346
-0.047390264 -0.0029892763 0.27555558 9260375
-0.042516556 -0.003587716 0.27562502 11102586
-0.037221354 -0.0037027448 0.27568185 12154250
-0.032130629 -0.0030151892 0.27605712 13014185
-0.027351452 -0.002343704 0.27655104 12818859
-0.022518156 -0.0022249683 0.277587 12816802
-0.017983513 -0.0011092271 0.27809525 13604520
0.083592676 -0.00017868455 0.27900001 12228968
0.087860525 -0.0011107151 0.27814278 12097637
0.092562303 -0.0016060114 0.27733338 11964001
0.097443298 -0.0014718929 0.27749994 12950909
0.10292941 -0.0011922906 0.27755001 15183260
0.10620297 -0.00079936202 0.27785715 16635091
-0.025050068 0.00054017245 0.27500001 11833490
-0.021581385 0.0011677074 0.27531254 12094873
-0.01709746 0.0023748982 0.27661908 13148075
-0.013052791 0.0037874735 0.27814284 13348538
0.079959109 0.0045449571 0.27900001 9790780
0.08281187 0.002920815 0.2778368 11108948
0.087377682 0.0024944192 0.27599993 11506016
0.092061341 0.0012924789 0.27510005 11439451
0.097436413 0.0010006481 0.27500004 12359027
0.10267001 0.0016583517 0.27528003 14790555
0.10727331 0.0025684845 0.27618185 16704217
0.11030213 0.0041548838 0.27733335 16711671
-0.01134171 0.007259483 0.27600002 13940155
-0.0085481601 0.007935795 0.27850002 15188429
0.079250596 0.0083201751 0.27876469 9266498
0.082526729 0.0077479673 0.27666077 9793346
0.085913323 0.0073460992 0.27505559 10385737
0.10961343 0.0055542393 0.27500001 16777205
0.11104602 0.0059123868 0.27500001 16711674
-0.010151128 0.012000896 0.27500001 16569297
-0.0074509531 0.012795893 0.27755266 16570343
-0.0043397257 0.013992241 0.27900001 16701431
0.078201011 0.012983242 0.27767503 8999469
0.08206962 0.01240157 0.27561358 9198897
0.085259393 0.010568306 0.27500001 9529915
0.11823714 0.013165466 0.27539998 16711673
0.12035786 0.014866076 0.27500001 16711673
-0.010676536 0.017891986 0.27545458 16642029
-0.0075368066 0.017068565 0.27819997 16576246
-0.0043397257 0.015445668 0.27900001 16373747
0.077642448 0.017344575 0.27763468 8998184
0.081993535 0.017982166 0.27536842 9130535
-0.011100138 0.022225335 0.27669564 16711422
-0.0016405021 0.024218144 0.27900001 16504041
2.0558593e-05 0.024166238 0.27900001 16567524
0.07811401 0.022015408 0.27824318 9261101
0.082402065 0.02261408 0.27603778 9392940
0.085361719 0.023359293 0.27500001 9524527
-0.01047508 0.026994267 0.27600002 16708606
-0.0073113567 0.027695106 0.27776664 16507895
-0.0025371802 0.027185729 0.27714285 16369626
0.001918807 0.027389657 0.2771143 15642044
0.079523534 0.026295947 0.27888891 9655346
0.082583703 0.027351938 0.27724007 9853752
0.086928435 0.028077403 0.27530006 9919545
0.090273462 0.029908277 0.27500001 10377788
0.083532013 0.031235052 0.27866665 10116155
0.087439612 0.032386318 0.27734551 10313276
0.09208189 0.032992214 0.27554548 10510655
0.097352147 0.034079641 0.27500004 11038535
0.10116114 0.034779083 0.27500001 11367499
0.088599592 0.036057081 0.27860004 10575679
0.092717133 0.036672734 0.27752635 10774083
0.097612299 0.037507452 0.27706391 11366989
0.10248418 0.037707552 0.27586049 12025430
0.10718343 0.038682692 0.27531254 13869700
0.11123228 0.038288828 0.27516666 16237744
0.099490508 0.040662676 0.27875003 11828309
0.10286352 0.041499328 0.27787095 12684391
0.10719816 0.041500296 0.27724999 14594713
0.11040998 0.040949665 0.27700001 16437437
0.093432307 -0.005350614 0.28350002 11691598
0.096654572 -0.0053449525 0.2832 12149074
0.10432393 -0.0053600501 0.28400001 14580603
0.10617328 -0.0053600501 0.28400001 16358552
-0.014565743 -0.00017932498 0.28 13936053
0.078537866 -0.00067299575 0.28283334 9983286
0.082471833 -0.0017569789 0.28138235 12092510
0.086985298 -0.0031505083 0.28147623 13148277
0.092391685 -0.0041801929 0.28086668 12288093
0.097707234 -0.0039888313 0.28113335 13010544
0.10259636 -0.0035984428 0.28190002 14653320
0.10675012 -0.0040478888 0.28258336 16625328
0.11078488 -0.0027693459 0.28350002 16639719
-0.012057607 0.0021176024 0.28066674 14004673
-0.0085129878 0.004208209 0.28083336 14336465
0.074734427 0.004256539 0.28400001 8339752
0.077622764 0.0028257605 0.28207409 9129774
0.080610357 0.0015528072 0.28 10578499
0.11014777 0.0020086314 0.28 16711422
-0.0064590545 0.007285553 0.28052184 15254228
-0.0039525931 0.0086031165 0.28100002 15845599
0.074181825 0.007950318 0.28384614 8338981
0.077004984 0.0074051786 0.28163412 8736817
-0.0056055412 0.010656267 0.28 16633062
-0.002614809 0.012293083 0.28069705 16371437
2.0705966e-05 0.013726581 0.28100002 15910621
0.073454522 0.012509448 0.28268421 8600870
0.076021716 0.011697746 0.28042108 8734506
-0.006057024 0.018661411 0.28 16711166
-0.0025144087 0.01752013 0.28036845 16439020
0.0009672048 0.017670767 0.28116676 16305642
0.073015608 0.017419955 0.28233337 8995624
0.075140469 0.017324325 0.28 9127978
-0.0072829402 0.022464408 0.280449 16711421
-0.0027139778 0.022093069 0.28051433 16509943
0.0017977823 0.022484099 0.28045952 16104912
0.07374505 0.022304287 0.28287098 9192743
0.076021433 0.023109198 0.28070003 9326125
-0.0068747448 0.025744641 0.28 16644349
-0.0043552802 0.025346832 0.28 16511483
0.0033025667 0.025529161 0.28 14920632
0.074586473 0.026596615 0.28400001 9258794
0.077368006 0.027664216 0.28177083 9522992
0.080488801 0.029479638 0.28 9984827
0.077782199 0.032286201 0.28283718 9522478
0.081896633 0.033209529 0.2805278 10116667
0.085350931 0.034827974 0.28 10116410
0.078470148 0.036201116 0.28335294 9193510
0.082667902 0.037093207 0.28231588 10049588
0.087032951 0.038084544 0.28146875 10444349
0.091638997 0.039054841 0.28049999 10905925
0.095926046 0.039933208 0.28 11235147
0.088411726 0.040813912 0.28358334 10444346
0.092683628 0.041190661 0.28273916 10905413
0.097617544 0.042126551 0.28200001 11696212
0.10161983 0.043754984 0.28154549 12553322
0.10650117 0.043944459 0.28 14793634
0.11110251 0.043448605 0.28150001 16774115
0.11218271 -0.010723745 0.289 16753832
0.093071774 -0.0059075183 0.28655556 12020305
0.09739612 -0.0063836076 0.28670004 11951953
0.10254566 -0.006244251 0.28710008 13134437
0.1076178 -0.0071942229 0.28687504 15238791
0.11209406 -0.0075417305 0.28780773 16627386
0.11737148 -0.0065895109 0.28847829 16711162
0.12123259 -0.0060291239 0.28844446 16711419
0.077287056 -0.0014308664 0.28708336 9192492
0.083229013 -0.0040423661 0.28650001 12414805
0.086212918 -0.0046609845 0.28650001 13733488
0.11302905 -0.0037277672 0.28637502 16709108
0.11781812 -0.0031016364 0.28705007 16711675
0.12093609 -0.0031719944 0.28655556 16580089
0.072985299 0.0028057666 0.28708333 7943715
0.075500324 0.00093261956 0.28550002 8535847
0.069507346 0.0078772521 0.28854549 8008483
0.071881361 0.0070172739 0.28625 8140836
0.068312488 0.013018908 0.28812501 8600360
0.070988037 0.012199802 0.28571999 8666407
0.067527115 0.017338598 0.28750002 8798249
0.07052879 0.017785348 0.28544447 8864038
0.068317138 0.021856902 0.28793553 8863270
0.071285531 0.022738855 0.28608 8929317
0.069530547 0.026116289 0.28850001 8797731
0.072281495 0.027684201 0.28681129 8995365
0.072847396 0.032351207 0.28670588 8732705
0.075739928 0.032851711 0.28500006 9061157
0.068746768 0.037153125 0.28766671 6308400
0.072331645 0.03700209 0.2873143 7485471
0.076967917 0.037878305 0.28607696 8601888
0.081843629 0.039409067 0.28500006 9522728
0.070535928 0.040324003 0.28800002 5585962
0.078978844 0.040845864 0.28714284 8338719
0.082689896 0.04201204 0.28700003 8930851
0.087355785 0.043092139 0.286125 9852206
0.092223793 0.043767259 0.28547367 10641469
0.096562557 0.044127859 0.28511116 11498320
0.089223489 0.045733344 0.289 9457960
0.092851125 0.045859136 0.28726667 10378552
0.097233295 0.046152428 0.28753331 11433039
0.10163609 0.045609321 0.28685716 12356200
0.10654344 0.047075409 0.28800002 14137751
0.093225203 -0.022451008 0.29214814 14015188
0.095174842 -0.021119922 0.29225004 12367524
0.093747638 -0.018266007 0.29357141 14665666
0.097297214 -0.017159155 0.29361293 12095612
0.10277213 -0.016267134 0.29395002 12285301
0.10729188 -0.016114529 0.29263166 13277852
0.11030494 -0.015398517 0.29200003 13274260
0.098951139 -0.012519639 0.2939474 8933179
0.1026749 -0.012379081 0.2931698 9324345
0.10756951 -0.012332527 0.29136738 12151398
0.11226998 -0.011836504 0.29039997 15307927
0.11727774 -0.01095552 0.29014999 16233148
0.12037634 -0.010257275 0.29000002 16711162
0.083971389 -0.0055299113 0.29300001 12214084
0.087320648 -0.0059239622 0.29144445 13400672
0.093401819 -0.0070339241 0.292 12020821
0.097631037 -0.0084725898 0.29223526 9720383
0.10263631 -0.0086550759 0.29111105 11295059
0.10595885 -0.0090036476 0.29016671 12476766
0.11445931 -0.0092501203 0.29000002 16496056
0.11778291 -0.0089479741 0.28999999 16245992
0.12087991 -0.0088724373 0.28999999 16711163
0.073410302 -0.0004163486 0.29260001 7548703
0.076992288 -0.0023528778 0.29192308 8863272
0.080537081 -0.0040035509 0.29300001 9979951
0.068441845 0.0031872531 0.29230437 7284507
0.071361214 0.0014230579 0.29118752 7417118
0.067331158 0.0074064424 0.29154763 7679010
0.066146441 0.012083407 0.29107404 8075050
0.067589074 0.02391031 0.29111111 8797478
0.068936631 0.027059421 0.29140002 8797732
0.05954963 0.031102728 0.29300001 11842993
0.061048426 0.032542229 0.29360002 10722968
0.068323597 0.033965304 0.29300001 8611414
0.067336813 0.035636671 0.29085717 7428939
0.073544547 0.039601482 0.29040003 6370334
0.075439513 0.039986074 0.29100001 7157019
0.073040217 0.040884059 0.29200003 5650727
0.077845007 0.04081405 0.29150003 7944477
0.083111621 0.044380859 0.29000002 7879711
0.0872081 0.046132386 0.2919167 8275232
0.092276506 0.047609065 0.29161537 9130281
0.097261973 0.048520412 0.29166666 10446655
0.10135843 0.048058242 0.29225001 11895134
0.10672607 0.048067719 0.2922 13346696
0.092686899 -0.016903548 0.29659092 14128262
0.09530203 -0.015940916 0.29500002 12218452
0.10208946 -0.017605759 0.29500005 14928326
0.094338872 -0.014487645 0.29785714 13208689
0.096477792 -0.012271342 0.29626831 10121286
0.079460487 -0.0056431517 0.29900002 10637875
0.082963221 -0.0059646145 0.29736367 11425850
0.087233379 -0.0075093987 0.2969231 13270109
0.092647821 -0.0080919005 0.29733333 11827549
0.096042976 -0.009340845 0.29628572 8607536
0.068674646 -0.00048274064 0.29825002 6562077
0.072479829 -0.0016660908 0.29699999 7022365
0.077062003 -0.0037050669 0.29715389 8665383
0.081230588 -0.004815537 0.296 10373680
0.06466312 0.0029237398 0.29900002 7881022
0.067158364 0.0019508842 0.29659092 6824220
0.064071834 0.0090137655 0.29866669 8671565
0.06543532 0.0072408975 0.29609093 7153956
0.064230591 0.012574169 0.29700002 8736328
0.065334842 0.01056852 0.29500002 7550510
0.063597314 0.032581739 0.29644448 11183520
0.066672631 0.033392455 0.29677778 10459023
0.077255405 0.041902222 0.29650003 6566428
0.088585928 0.048157111 0.29700002 7092507
0.090600789 0.049569204 0.2985 6699548
0.10348779 0.049556475 0.29533336 12094054
0.10873198 0.049925044 0.296 14139302
0.091543965 -0.016029395 0.30233335 15774631
0.084154524 -0.010686468 0.30400002 14124151
0.087738335 -0.011431026 0.30339128 15709610
0.092526987 -0.012363067 0.30186367 15061445
0.073366173 -0.0058452454 0.30371428 6759196
0.077956147 -0.0069410671 0.30248001 9386798
0.08257129 -0.0080593675 0.30183876 12741716
0.087205768 -0.0091651129 0.30135718 14258805
0.091908522 -0.0092395265 0.30081823 14334380
0.064525291 -0.00019341482 0.30200002 12036784
0.067495748 -0.00271188 0.30199999 7753556
0.072250634 -0.003930307 0.30183336 6628123
0.076159142 -0.0046332646 0.30083331 8007715
0.064075388 0.0026296894 0.30100006 10453376
0.065095656 0.00059124333 0.30100003 8475735
0.063654371 0.00737955 0.30077779 10189430
0.06369058 0.012897938 0.30071428 10255221
0.064454071 0.016309373 0.30166671 10055273
0.066207968 0.023838621 0.30250001 9004893
0.06402646 0.029649068 0.30150002 13159372
0.06715899 0.028347353 0.30241179 10980997
0.064097971 0.030282972 0.30000001 13158602
0.06759613 0.031701572 0.30050001 11247512
0.078323066 0.043528102 0.30175 5779998
0.088643171 0.049362063 0.30200002 5647896
0.078342214 -0.015769521 0.30771431 9528172
0.08272443 -0.016281856 0.30794743 12087407
0.087471671 -0.016917467 0.30742425 14525344
0.090338223 -0.016111085 0.3055 16630458
0.073094919 -0.011708301 0.30757898 8410196
0.07760302 -0.012536352 0.30682933 9454650
0.082476802 -0.012678571 0.30620596 13267041
0.08715307 -0.013762305 0.30542108 16497070
0.090588234 -0.014495193 0.30500001 16776692
0.068691008 -0.0068314802 0.30560002 8611175
0.072510146 -0.0081539741 0.30633342 6893093
0.076974116 -0.0090507343 0.30556256 8334885
0.08065778 -0.0097285742 0.30500001 11356733
0.079626076 0.045750037 0.30766669 5255971
0.040601145 0.0089877695 0.44500002 15530236
0.033932887 -0.020788094 0.45400003 11910842
0.035982616 -0.021339944 0.45400006 12437962
0.034327067 -0.019211376 0.45400003 12107452
0.036692142 -0.018620107 0.45400003 12700876
0.042418633 0.0076146969 0.45199999 15727101
0.029922869 -0.030183012 0.45900002 10597043
0.033307098 -0.031862028 0.45857152 12047329
0.036804199 -0.031489208 0.45866668 13957118
0.029373234 -0.026905177 0.45842859 10529960
0.032735612 -0.02705157 0.45656249 11517888
0.037548188 -0.027088109 0.45718747 13495287
0.040682927 -0.025400763 0.45900002 15597566
0.029268373 -0.022367997 0.458125 10923946
0.03233216 -0.022554705 0.45538458 11516084
0.038020197 -0.022630099 0.45572728 13032426
0.041351944 -0.02192194 0.45812503 15269374
0.029591385 -0.018505778 0.45850003 11449776
0.032604139 -0.017409412 0.45639998 11976120
0.037771128 -0.016785853 0.45560002 13161173
0.042242359 -0.017460799 0.45773342 15202812
0.033125132 -0.014110469 0.45842862 12567486
0.037595473 -0.013647023 0.4578 13489621
0.042181719 -0.014115025 0.45857146 15267836
0.041973703 0.0042340457 0.45740002 15595002
0.066988759 0.0023630196 0.45715392 15268348
0.043585222 0.0060426109 0.456 15924222
0.045605235 0.0078177433 0.45800003 16252926
0.065503061 0.0056590782 0.45700002 14807545
0.046609905 0.012244778 0.45850003 15793918
0.033196308 -0.046424963 0.463 14743801
0.037940387 -0.046625864 0.46199995 16121340
0.042275865 -0.046341851 0.46116665 15660276
0.03282081 -0.042471897 0.46263158 14022397
0.037888572 -0.042958681 0.46137497 16383998
0.042650111 -0.042911485 0.46087497 16449533
0.047484774 -0.042228658 0.46152937 16383741
0.052072007 -0.040868629 0.46325001 15660791
0.029008947 -0.03591235 0.46350002 10204348
0.032532342 -0.037318319 0.46133336 12378352
0.037783962 -0.037446298 0.46010002 16056318
0.042681288 -0.037534129 0.4612 16515070
0.047553673 -0.037244722 0.46288234 16515070
0.051871557 -0.0375132 0.46390003 16449534
0.027815096 -0.031878542 0.4622308 9873060
0.030972669 -0.03339291 0.46040002 10993865
0.038888726 -0.032645099 0.46000001 15859710
0.042768065 -0.032193407 0.46212497 16449534
0.046866879 -0.033835411 0.46400002 16449534
0.02668523 -0.027505837 0.46192312 9937822
0.042859111 -0.027480423 0.46180001 16252926
0.045960438 -0.026281752 0.46400002 16515070
0.026746383 -0.022799017 0.46199998 10594725
0.043700945 -0.022954514 0.46087497 16187390
0.047521345 -0.022360791 0.46321434 16515070
0.052343786 -0.021801006 0.46380004 16580606
0.055629119 -0.02084312 0.46400002 16580606
0.027910816 -0.017570861 0.46172726 11252652
0.044366058 -0.01946527 0.46000001 16383998
0.047472253 -0.017709726 0.46106249 16449534
0.052404355 -0.017752932 0.4621875 16515070
0.055629119 -0.018425949 0.46400002 16580606
0.028506735 -0.013808848 0.4632 11514283
0.032039098 -0.012227464 0.4616923 12238520
0.037843928 -0.011497562 0.46083331 13949660
0.042841494 -0.011895902 0.46077776 15924221
0.04751705 -0.012915549 0.46149999 16449534
0.052002426 -0.013261742 0.46308336 16515070
0.032665998 -0.009965851 0.46400002 11446695
0.037500337 -0.009965851 0.46400005 13949146
0.04293897 -0.009965851 0.46400002 16383485
0.047773313 -0.009965851 0.46400002 16515070
0.042521723 0.0024541323 0.46228576 15595002
0.047470227 0.0037219625 0.46299997 16449533
0.052223187 0.0042935023 0.46380001 16580603
0.06370721 0.0027073903 0.46125004 15596283
0.048136543 0.0073396284 0.46063635 16383997
0.052300695 0.0074107167 0.46233329 16449532
0.057039138 0.0061486214 0.46400002 16449530
0.062599175 0.0057209935 0.46200001 15398649
0.048550017 0.012392108 0.46071431 15990782
0.051434994 0.011349452 0.46250001 16383998
0.048877638 0.015381223 0.463 15663102
0.028009864 -0.045914069 0.46700001 12178919
0.030314019 -0.045717437 0.46500003 13302269
0.027537739 -0.042167362 0.46726671 10206413
0.030314019 -0.042689465 0.46500003 11985915
0.024449348 -0.036923245 0.46866667 8556943
0.027098969 -0.037516773 0.46628577 9479851
0.053932223 -0.036633514 0.46500006 16383741
0.055991251 -0.036875751 0.46500006 15134707
0.023281962 -0.032406747 0.46754548 8885393
0.025785748 -0.033321135 0.46525005 9214615
0.048179075 -0.031889688 0.46500012 16449534
0.052756712 -0.032415055 0.4653126 16449534
0.056624234 -0.032229591 0.46555561 16252413
0.023130791 -0.02765294 0.46675003 9411479
0.048181057 -0.027748564 0.46542865 16515070
0.052806068 -0.027594674 0.46575007 16515070
0.057134826 -0.02763276 0.46641672 16055292
0.023566542 -0.023021054 0.46733338 10134432
0.025469258 -0.021493636 0.46500003 10594726
0.049087469 -0.024521612 0.46500003 16580606
0.053124771 -0.024117881 0.46500006 16580606
0.057240188 -0.022936689 0.4663637 15989500
0.024401529 -0.017964713 0.46775004 10397087
0.025755312 -0.017525872 0.46579999 10791845
0.057613261 -0.017734148 0.46700001 16252668
0.024466738 -0.014959676 0.46900001 9540231
0.026772665 -0.012104706 0.46664286 8682867
0.054211851 -0.011415138 0.46566668 16580606
0.056973845 -0.012781232 0.46758333 16515070
0.058384791 -0.00070671132 0.46833333 16449530
0.043964021 0.0012166711 0.46525002 16186878
0.048194647 0.0014335865 0.46557146 16449531
0.05297979 0.0020167818 0.46581823 16449531
0.05771973 0.0027347396 0.46625006 16383994
0.060961723 0.0018234083 0.46550006 16252665
0.054537822 0.0093917139 0.46500003 16449534
0.057871111 0.0084325997 0.46550006 16383994
0.060767516 0.0082065845 0.46633336 15859449
0.053128768 0.012714127 0.46628574 16318461
0.056992963 0.010970361 0.46775004 16449532
0.049693063 0.016658854 0.46500003 15400186
0.051232666 0.015547327 0.46800002 15794174
0.023657966 -0.046322044 0.47240001 13293013
0.025743119 -0.046209022 0.47000003 12635856
0.019789049 -0.041046444 0.47400004 7765631
0.022914922 -0.042624876 0.47233337 9412518
0.025743119 -0.044372704 0.47000003 10073281
0.01865527 -0.037770491 0.47372732 8094596
0.022318827 -0.037886612 0.47130775 8227721
0.017896816 -0.032952156 0.47300005 8555402
0.021108847 -0.033138845 0.47040001 8490635
0.018157676 -0.028194865 0.47292858 9147281
0.020846264 -0.027845819 0.47000003 9279636
0.019356629 -0.023529885 0.47350001 9476245
0.021361113 -0.022394311 0.47125006 9871002
0.060404219 -0.02063139 0.47300002 15530490
0.022339894 -0.017504649 0.47176927 9540750
0.060600061 -0.016552418 0.47260004 16318461
0.023358172 -0.011964886 0.47133335 6706757
0.054014716 0.01442017 0.47100002 16252926
0.057081763 0.012580594 0.47100002 16449532
0.060148813 0.011354428 0.47100002 16187128
0.053573329 0.01569682 0.47250003 15990782
0.019335901 -0.042865176 0.47499999 13029070
0.014881848 -0.036184091 0.47500002 13554900
0.016428394 -0.038039949 0.47500002 12041662
0.014469436 -0.032678585 0.47499999 10857643
0.014283597 -0.027561909 0.47570005 11844025
0.016428394 -0.025976885 0.47500002 9147281
0.014357667 -0.022724112 0.4781667 13554899
0.01732279 -0.021605462 0.47676927 10198942
0.062287789 -0.020226955 0.47800002 15530748
0.018194361 -0.017223816 0.47760007 9736070
0.021068035 -0.015151058 0.47500002 7365714
0.062987946 -0.016663071 0.47700003 16252668
0.017893096 -0.012018598 0.47776476 6640701
0.021068035 -0.012057966 0.47500002 6508859
0.057656448 0.013946977 0.47575003 16252925
0.060915038 0.01336142 0.47700003 15990779
0.054702803 0.01708876 0.47700003 16121855
0.056062534 0.015879534 0.47800002 16121853
0.0088604223 -0.020480851 0.48400003 13358032
0.011946818 -0.02037506 0.48150003 13358032
0.0088604223 -0.015438131 0.48400003 7892576
0.011971639 -0.017275445 0.48249999 10131598
0.015288551 -0.016810855 0.48000002 9604482
0.063865125 -0.018456053 0.48050004 15924732
-0.0075037912 -0.010988654 0.48233333 7628111
0.015038501 -0.012810022 0.48000002 6838593
0.058797624 0.014695715 0.48000002 16187389
0.060927123 0.014756947 0.48200002 15859707
0.056989264 0.017701793 0.48233333 15925245
0.05550557 0.021121578 0.48400003 15465725
0.0070001734 -0.021209657 0.48625001 13226191
0.064729065 -0.023144785 0.48700002 15069947
0.066133074 -0.021286964 0.48800004 15530749
0.0034273162 -0.016000919 0.48833337 8748400
0.0070430762 -0.017544171 0.48592311 10328979
-0.0069298339 -0.012970148 0.48600003 7891027
-0.19023816 0.0034935838 0.48700002 11646903
0.058930274 0.017421449 0.48625001 15990781
0.061388116 0.016614163 0.48733339 15662585
0.057235394 0.021296138 0.48800004 15465979
0.0038965812 -0.020904008 0.49400002 12896968
0.0051623229 -0.022100894 0.49200001 13291728
0.068095446 -0.021825435 0.49300003 15530750
-0.0012477945 -0.015725205 0.49300003 9210235
0.0016365226 -0.017135991 0.49200001 10394256
-0.0025208013 -0.014372732 0.49066672 7957849
-0.19090982 0.0022479349 0.49200001 11449522
0.062245019 0.018629339 0.49140006 15399931
0.058926105 0.020810721 0.49150002 15663102
0.061675921 0.020230213 0.49300003 15334394
-0.0025575953 -0.017181836 0.49800003 10394770
3.6548608e-05 -0.018404767 0.49600002 11909554
0.060635053 0.021601615 0.49500003 15334393
